ncols         617
nrows         32
xllcorner     494453.561351
yllcorner     4249396
cellsize      10
NODATA_value  -9999
-9999 -9999 -9999 -9999 -9999 -9999 -9999 -9999 -9999 -9999 -9999 -9999 -9999 -9999 -9999 -9999 -9999 -9999 -9999 -9999 -9999 -9999 -9999 -9999 -9999 -9999 -9999 -9999 -9999 -9999 -9999 -9999 -9999 -9999 -9999 -9999 -9999 -9999 -9999 -9999 -9999 -9999 -9999 -9999 -9999 -9999 -9999 -9999 -9999 -9999 -9999 -9999 -9999 -9999 -9999 -9999 -9999 -9999 -9999 -9999 -9999 -9999 1 1 1 1 1 1 1 2 8 19 33 47 61 74 87 100 113 125 136 143 146 149 150 152 154 156 157 159 160 162 165 166 168 169 170 172 173 175 176 178 179 179 180 180 179 176 174 172 170 168 166 164 163 161 160 158 157 156 155 153 151 150 149 148 146 145 143 141 139 136 133 131 128 126 124 122 121 120 119 118 117 116 116 116 116 116 116 116 116 115 115 114 114 114 114 114 114 114 114 114 115 115 115 115 115 116 116 117 117 118 119 120 120 121 121 122 122 123 123 123 124 125 125 126 126 126 127 127 128 128 129 129 129 129 129 129 130 130 130 129 129 129 129 129 129 129 128 128 129 129 130 131 131 132 133 134 134 134 134 134 134 134 133 133 132 131 131 131 131 131 131 131 132 131 130 129 129 129 129 128 128 128 128 128 129 130 130 131 132 133 133 134 134 135 136 137 138 138 139 139 139 139 139 139 138 138 139 139 141 143 145 147 149 150 150 150 150 151 153 155 156 156 156 155 154 156 157 158 159 160 161 163 164 166 168 169 170 171 171 169 166 163 160 158 157 156 153 147 139 134 136 147 158 163 165 169 173 179 187 195 203 215 227 238 249 260 268 272 274 276 278 279 280 282 284 286 286 286 288 290 291 292 293 294 295 296 296 297 298 300 300 300 300 301 301 302 302 302 303 302 301 301 301 301 301 302 304 306 308 309 310 310 311 311 312 313 314 315 315 316 318 319 319 319 319 320 320 320 320 320 321 322 323 323 324 324 324 324 325 326 326 327 327 327 328 329 330 331 332 333 333 334 334 335 335 336 338 339 340 342 344 346 348 350 353 357 360 363 368 372 375 376 376 377 377 377 378 378 378 377 377 376 376 375 374 373 372 371 372 374 378 381 385 389 392 393 391 387 383 378 373 370 365 361 356 350 344 336 328 322 317 313 307 302 298 293 287 282 277 273 269 265 261 256 251 246 241 236 232 228 223 217 210 205 201 198 194 191 187 181 175 168 161 155 149 142 136 130 124 120 115 109 103 98 94 89 83 77 70 64 58 50 43 35 25 15 7 1 0 0 0 0 1 1 1 -9999 -9999 -9999 -9999 -9999 -9999 -9999 -9999 -9999 -9999 -9999 -9999 -9999 -9999 -9999 -9999 -9999 -9999 -9999 -9999 -9999 -9999 -9999 -9999 -9999 -9999 -9999 -9999 -9999 -9999 -9999 -9999 -9999 -9999 -9999 -9999 -9999 -9999 -9999 -9999 -9999 -9999 -9999 -9999 -9999 -9999 -9999 -9999 -9999 -9999 -9999 -9999 -9999 -9999 -9999 -9999 -9999 -9999 -9999 -9999 -9999 -9999 -9999 -9999 -9999 -9999 -9999 -9999 -9999 -9999 -9999 -9999 -9999 -9999 -9999 -9999 -9999 -9999 -9999 -9999
-9999 -9999 -9999 -9999 -9999 -9999 -9999 -9999 -9999 -9999 -9999 -9999 -9999 -9999 -9999 -9999 -9999 -9999 -9999 -9999 -9999 -9999 -9999 -9999 -9999 -9999 -9999 -9999 -9999 -9999 -9999 -9999 -9999 -9999 -9999 -9999 -9999 -9999 -9999 -9999 -9999 -9999 -9999 -9999 -9999 -9999 -9999 -9999 -9999 -9999 -9999 -9999 -9999 -9999 -9999 -9999 -9999 -9999 -9999 -9999 -9999 -9999 1 1 1 1 1 1 1 1 4 13 26 40 54 67 80 92 104 116 128 139 145 147 149 152 153 156 157 159 160 162 164 165 166 168 169 171 172 174 176 177 179 180 181 181 181 180 178 176 173 171 170 168 167 165 164 163 161 160 159 158 156 155 154 152 151 149 148 146 144 142 139 136 134 131 129 127 125 124 123 123 122 121 120 120 120 120 120 120 119 119 119 119 118 118 118 118 117 117 117 118 118 118 118 118 118 119 120 120 120 121 122 123 124 124 125 125 125 125 126 126 127 128 128 129 129 130 131 131 131 132 132 132 132 132 132 133 133 133 133 133 133 133 133 133 133 133 132 132 132 133 134 135 135 136 138 139 139 139 139 138 138 138 137 137 136 136 135 135 135 134 134 134 134 134 134 133 133 133 132 132 131 131 130 130 131 131 132 133 134 135 136 136 136 137 137 138 140 141 142 142 142 142 142 141 141 141 141 141 142 144 146 148 151 152 153 153 153 153 155 156 158 159 158 157 157 158 159 160 161 162 164 165 166 168 170 171 173 173 172 169 166 162 159 158 157 157 152 144 136 133 138 150 160 167 173 177 179 183 190 198 207 218 230 240 249 260 267 272 275 278 280 282 283 284 286 287 287 288 289 290 292 293 294 295 296 297 298 299 300 301 302 302 302 302 303 303 304 304 304 303 303 303 303 303 303 303 304 306 308 309 310 311 311 312 312 313 314 315 316 317 318 319 319 319 320 321 321 321 321 321 322 322 323 323 323 324 324 325 326 326 327 327 327 328 329 329 331 332 333 334 334 334 335 336 336 337 339 340 341 343 345 347 349 351 354 358 361 363 367 371 375 377 377 377 377 377 377 377 377 377 377 377 376 375 374 373 372 372 373 374 377 380 383 387 390 393 392 389 384 379 375 371 368 363 358 353 348 340 331 324 320 316 311 307 302 296 291 287 283 279 275 270 265 260 254 249 244 239 235 229 224 220 214 210 207 203 198 193 187 180 173 167 160 154 147 141 135 129 124 121 117 112 107 102 97 91 85 78 71 63 56 50 44 38 29 21 12 5 1 0 0 0 0 1 1 -9999 -9999 -9999 -9999 -9999 -9999 -9999 -9999 -9999 -9999 -9999 -9999 -9999 -9999 -9999 -9999 -9999 -9999 -9999 -9999 -9999 -9999 -9999 -9999 -9999 -9999 -9999 -9999 -9999 -9999 -9999 -9999 -9999 -9999 -9999 -9999 -9999 -9999 -9999 -9999 -9999 -9999 -9999 -9999 -9999 -9999 -9999 -9999 -9999 -9999 -9999 -9999 -9999 -9999 -9999 -9999 -9999 -9999 -9999 -9999 -9999 -9999 -9999 -9999 -9999 -9999 -9999 -9999 -9999 -9999 -9999 -9999 -9999 -9999 -9999 -9999 -9999 -9999 -9999 -9999
-9999 -9999 -9999 -9999 -9999 -9999 -9999 -9999 -9999 -9999 -9999 -9999 -9999 -9999 -9999 -9999 -9999 -9999 -9999 -9999 -9999 -9999 -9999 -9999 -9999 -9999 -9999 -9999 -9999 -9999 -9999 -9999 -9999 -9999 -9999 -9999 -9999 -9999 -9999 -9999 -9999 -9999 -9999 -9999 -9999 -9999 -9999 -9999 -9999 -9999 -9999 -9999 -9999 -9999 -9999 -9999 -9999 -9999 -9999 -9999 -9999 -9999 1 1 1 1 1 1 1 1 1 6 19 34 47 60 72 83 95 107 119 131 140 145 148 150 152 154 156 158 159 161 163 164 165 167 168 170 171 173 175 177 178 180 181 182 182 182 181 179 177 175 173 172 170 169 168 166 165 164 163 162 161 160 159 157 155 154 152 151 149 147 144 141 139 136 134 132 130 129 127 127 127 126 125 124 124 124 124 124 123 123 123 123 123 122 122 122 121 121 121 121 122 121 121 122 122 122 123 123 123 124 125 126 127 127 128 128 128 128 129 129 130 131 132 132 133 133 134 134 135 135 135 136 136 136 136 136 136 137 137 137 137 137 137 137 137 137 136 135 136 137 138 139 140 140 142 143 143 143 143 143 142 142 141 140 140 139 139 139 138 138 138 137 137 137 136 136 135 135 135 135 134 134 134 133 133 133 134 135 136 137 138 138 138 138 139 140 142 144 145 146 146 145 145 144 144 144 144 143 144 145 147 149 152 154 155 156 155 156 157 158 160 161 161 161 160 160 161 162 163 164 166 167 168 170 172 173 174 173 172 168 164 161 158 156 155 154 149 142 135 134 141 154 163 170 177 183 187 192 199 207 214 223 234 244 253 262 269 273 277 280 282 284 285 286 288 289 289 289 289 290 292 294 295 297 298 299 300 301 302 303 304 304 304 304 304 305 305 306 305 304 304 304 304 305 305 305 305 306 308 308 310 311 312 312 313 314 315 316 317 318 319 319 319 320 321 322 322 322 322 322 322 323 323 323 323 324 325 325 326 326 327 328 328 328 329 330 331 333 334 335 335 335 336 337 338 339 340 341 342 344 346 348 350 353 356 360 362 363 366 370 373 376 377 377 377 376 376 376 376 376 376 376 376 375 374 373 373 373 373 374 376 379 382 385 388 391 392 391 387 382 377 374 370 365 360 356 351 344 335 327 322 318 315 311 306 300 295 291 288 284 279 274 268 263 257 252 247 242 237 232 228 224 220 215 211 206 201 194 186 179 173 166 159 152 146 140 135 131 127 124 121 116 111 105 98 91 85 78 71 64 57 51 46 40 33 24 16 8 2 0 0 0 0 1 1 -9999 -9999 -9999 -9999 -9999 -9999 -9999 -9999 -9999 -9999 -9999 -9999 -9999 -9999 -9999 -9999 -9999 -9999 -9999 -9999 -9999 -9999 -9999 -9999 -9999 -9999 -9999 -9999 -9999 -9999 -9999 -9999 -9999 -9999 -9999 -9999 -9999 -9999 -9999 -9999 -9999 -9999 -9999 -9999 -9999 -9999 -9999 -9999 -9999 -9999 -9999 -9999 -9999 -9999 -9999 -9999 -9999 -9999 -9999 -9999 -9999 -9999 -9999 -9999 -9999 -9999 -9999 -9999 -9999 -9999 -9999 -9999 -9999 -9999 -9999 -9999 -9999 -9999 -9999 -9999
-9999 -9999 -9999 -9999 -9999 -9999 -9999 -9999 -9999 -9999 -9999 -9999 -9999 -9999 -9999 -9999 -9999 -9999 -9999 -9999 -9999 -9999 -9999 -9999 -9999 -9999 -9999 -9999 -9999 -9999 -9999 -9999 -9999 -9999 -9999 -9999 -9999 -9999 -9999 -9999 -9999 -9999 -9999 -9999 -9999 -9999 -9999 -9999 -9999 -9999 -9999 -9999 -9999 -9999 -9999 -9999 -9999 -9999 -9999 -9999 -9999 -9999 -9999 -9999 1 1 1 1 1 1 1 3 13 27 40 52 63 73 85 96 109 121 133 141 145 149 151 153 154 156 158 160 161 163 164 165 167 169 171 172 174 176 178 180 181 183 183 183 183 182 180 179 177 176 174 173 171 170 168 168 167 166 165 164 163 161 159 158 156 155 153 151 148 146 144 141 139 136 135 133 132 131 131 130 129 129 128 128 128 128 128 128 128 128 127 127 126 126 126 125 125 125 125 125 125 125 126 126 126 126 127 128 129 129 130 131 131 131 132 132 132 133 134 135 135 136 136 137 137 138 138 139 139 139 139 139 139 139 140 140 140 140 140 140 140 140 140 140 140 140 140 142 143 144 145 144 145 147 148 147 147 147 146 146 145 144 143 143 142 142 141 141 140 140 140 139 139 138 138 138 138 137 137 137 136 136 136 136 136 137 138 139 140 140 141 141 140 140 143 145 147 148 148 148 148 147 147 147 146 146 146 147 148 150 152 154 157 158 157 158 158 159 161 163 164 164 163 163 163 164 164 165 167 169 171 173 174 175 175 173 170 166 162 159 156 153 152 149 145 140 137 138 147 158 166 174 181 188 193 199 205 212 219 228 238 249 259 267 273 275 279 283 285 286 287 288 289 291 291 292 291 291 292 294 297 299 300 301 302 303 304 305 306 306 306 306 306 306 307 308 307 305 305 305 305 306 306 306 306 306 308 308 309 310 312 313 313 314 315 316 317 318 319 320 320 321 322 322 322 323 323 323 323 324 324 324 324 325 326 326 326 327 327 328 328 329 330 330 332 333 334 335 335 336 337 338 339 340 341 341 343 344 346 348 351 355 359 362 363 365 366 369 372 375 377 377 376 376 376 376 376 376 375 375 375 374 374 374 374 374 374 375 375 377 380 383 386 388 390 391 389 384 379 375 371 367 362 358 353 346 339 332 325 320 318 314 309 305 300 296 292 287 283 277 271 265 260 255 250 245 240 237 233 229 224 218 213 207 201 194 187 181 174 167 160 153 147 143 140 137 133 129 124 119 113 106 98 91 86 79 71 66 60 54 48 43 36 28 19 11 4 0 0 0 0 1 1 -9999 -9999 -9999 -9999 -9999 -9999 -9999 -9999 -9999 -9999 -9999 -9999 -9999 -9999 -9999 -9999 -9999 -9999 -9999 -9999 -9999 -9999 -9999 -9999 -9999 -9999 -9999 -9999 -9999 -9999 -9999 -9999 -9999 -9999 -9999 -9999 -9999 -9999 -9999 -9999 -9999 -9999 -9999 -9999 -9999 -9999 -9999 -9999 -9999 -9999 -9999 -9999 -9999 -9999 -9999 -9999 -9999 -9999 -9999 -9999 -9999 -9999 -9999 -9999 -9999 -9999 -9999 -9999 -9999 -9999 -9999 -9999 -9999 -9999 -9999 -9999 -9999 -9999 -9999 -9999
-9999 -9999 -9999 -9999 -9999 -9999 -9999 -9999 -9999 -9999 -9999 -9999 -9999 -9999 -9999 -9999 -9999 -9999 -9999 -9999 -9999 -9999 -9999 -9999 -9999 -9999 -9999 -9999 -9999 -9999 -9999 -9999 -9999 -9999 -9999 -9999 -9999 -9999 -9999 -9999 -9999 -9999 -9999 -9999 -9999 -9999 -9999 -9999 -9999 -9999 -9999 -9999 -9999 -9999 -9999 -9999 -9999 -9999 -9999 -9999 -9999 -9999 -9999 -9999 -9999 1 1 1 1 1 1 2 10 21 33 43 53 63 74 85 98 110 122 134 142 147 149 151 153 155 157 158 160 162 163 164 166 168 170 172 174 176 178 180 181 182 183 184 184 184 183 182 181 180 178 176 175 173 172 172 171 170 168 167 166 165 163 162 160 159 157 155 152 150 148 145 143 141 139 138 137 136 135 134 134 133 133 132 132 132 132 132 132 132 132 131 131 130 130 129 129 129 129 129 129 129 129 129 129 130 130 131 132 133 133 134 135 135 135 135 135 136 137 138 138 139 140 140 141 141 142 142 142 142 143 143 143 143 144 144 144 144 144 143 143 143 144 144 144 144 145 146 147 148 149 149 149 151 152 152 152 151 151 150 149 148 147 146 146 145 145 144 144 143 142 142 141 141 141 140 140 140 139 139 139 139 139 139 139 139 140 141 142 143 143 143 142 142 144 147 148 150 150 150 150 151 150 150 149 149 149 149 149 151 153 155 157 159 160 160 160 161 163 164 166 166 166 166 165 166 166 167 168 170 173 174 176 176 175 171 168 163 160 157 154 151 148 145 142 139 139 145 153 161 169 177 184 192 198 204 211 218 225 233 243 254 265 273 277 279 282 286 288 289 290 290 291 293 294 294 293 293 293 295 298 300 301 303 304 305 306 307 308 308 308 307 307 308 308 309 308 307 306 306 306 306 307 306 306 307 308 308 308 309 311 312 313 314 315 316 318 319 320 321 321 322 322 322 323 323 324 324 324 325 325 325 325 326 327 327 327 327 327 328 329 329 330 331 332 333 334 335 336 337 338 339 339 340 342 342 343 345 347 349 352 357 362 366 367 369 369 370 373 375 377 377 376 376 375 375 375 375 375 374 374 374 374 374 375 375 375 375 375 376 378 381 384 386 388 390 389 386 382 377 372 369 365 361 356 350 344 337 329 323 320 318 314 309 304 300 295 290 285 279 273 268 262 257 253 248 244 241 237 232 226 220 214 208 201 194 188 181 175 167 161 156 151 149 147 143 138 132 127 120 114 108 101 94 88 81 74 68 63 57 51 45 39 32 23 14 6 1 0 0 0 0 1 -9999 -9999 -9999 -9999 -9999 -9999 -9999 -9999 -9999 -9999 -9999 -9999 -9999 -9999 -9999 -9999 -9999 -9999 -9999 -9999 -9999 -9999 -9999 -9999 -9999 -9999 -9999 -9999 -9999 -9999 -9999 -9999 -9999 -9999 -9999 -9999 -9999 -9999 -9999 -9999 -9999 -9999 -9999 -9999 -9999 -9999 -9999 -9999 -9999 -9999 -9999 -9999 -9999 -9999 -9999 -9999 -9999 -9999 -9999 -9999 -9999 -9999 -9999 -9999 -9999 -9999 -9999 -9999 -9999 -9999 -9999 -9999 -9999 -9999 -9999 -9999 -9999 -9999 -9999 -9999
-9999 -9999 -9999 -9999 -9999 -9999 -9999 -9999 -9999 -9999 -9999 -9999 -9999 -9999 -9999 -9999 -9999 -9999 -9999 -9999 -9999 -9999 -9999 -9999 -9999 -9999 -9999 -9999 -9999 -9999 -9999 -9999 -9999 -9999 -9999 -9999 -9999 -9999 -9999 -9999 -9999 -9999 -9999 -9999 -9999 -9999 -9999 -9999 -9999 -9999 -9999 -9999 -9999 -9999 -9999 -9999 -9999 -9999 -9999 -9999 -9999 -9999 -9999 -9999 -9999 -9999 1 1 1 1 1 2 8 17 26 35 43 52 61 73 87 99 112 127 138 145 148 150 152 154 155 157 159 160 162 164 165 167 169 171 173 175 177 179 181 182 183 184 185 186 186 185 184 183 181 180 178 177 176 176 175 173 171 170 169 168 166 165 164 163 161 159 157 154 152 149 147 145 144 143 141 140 140 139 138 137 137 136 136 136 136 136 136 136 136 136 135 134 134 134 134 133 133 133 133 133 132 132 133 133 133 134 135 136 137 137 138 138 139 139 139 139 140 141 142 142 143 144 144 145 145 145 146 146 146 146 147 147 147 148 148 148 148 147 147 147 147 148 148 148 149 150 151 153 154 154 153 155 157 156 156 156 155 154 153 152 151 150 150 149 148 148 147 146 146 145 144 144 143 143 143 142 142 142 142 142 142 142 141 142 142 143 144 145 146 146 145 144 145 148 150 151 152 152 153 153 153 153 152 152 152 151 152 153 155 156 158 160 161 162 163 164 164 166 167 168 169 168 168 168 169 170 171 172 174 175 177 176 173 169 165 161 159 155 152 149 145 141 140 141 144 151 158 164 171 179 187 194 201 208 216 223 230 238 248 259 270 279 283 284 286 289 292 293 293 293 294 295 296 296 296 296 296 297 299 301 303 304 305 306 308 309 309 309 309 309 309 309 309 309 309 308 307 307 307 308 308 307 306 307 308 308 308 308 310 312 313 314 315 317 318 319 320 321 322 322 323 323 323 324 324 324 325 325 325 325 325 326 327 327 327 327 328 328 329 329 330 331 332 333 334 335 336 337 338 339 340 341 342 342 343 345 347 350 354 359 365 369 371 373 373 374 375 375 376 376 376 375 375 374 374 374 374 374 373 373 374 374 375 375 374 374 374 375 377 379 381 383 385 388 389 387 383 379 374 370 367 363 360 355 349 342 334 328 324 321 317 312 308 302 297 293 287 281 276 271 266 261 257 253 248 243 238 232 226 220 214 208 201 194 188 182 176 169 164 162 159 156 152 146 140 133 128 122 116 109 103 96 90 83 77 71 65 59 52 46 39 32 25 17 9 2 0 0 0 0 1 -9999 -9999 -9999 -9999 -9999 -9999 -9999 -9999 -9999 -9999 -9999 -9999 -9999 -9999 -9999 -9999 -9999 -9999 -9999 -9999 -9999 -9999 -9999 -9999 -9999 -9999 -9999 -9999 -9999 -9999 -9999 -9999 -9999 -9999 -9999 -9999 -9999 -9999 -9999 -9999 -9999 -9999 -9999 -9999 -9999 -9999 -9999 -9999 -9999 -9999 -9999 -9999 -9999 -9999 -9999 -9999 -9999 -9999 -9999 -9999 -9999 -9999 -9999 -9999 -9999 -9999 -9999 -9999 -9999 -9999 -9999 -9999 -9999 -9999 -9999 -9999 -9999 -9999 -9999 -9999
-9999 -9999 -9999 -9999 -9999 -9999 -9999 -9999 -9999 -9999 -9999 -9999 -9999 -9999 -9999 -9999 -9999 -9999 -9999 -9999 -9999 -9999 -9999 -9999 -9999 -9999 -9999 -9999 -9999 -9999 -9999 -9999 -9999 -9999 -9999 -9999 -9999 -9999 -9999 -9999 -9999 -9999 -9999 -9999 -9999 -9999 -9999 -9999 -9999 -9999 -9999 -9999 -9999 -9999 -9999 -9999 -9999 -9999 -9999 -9999 -9999 -9999 -9999 -9999 -9999 -9999 1 1 1 1 1 1 5 13 21 29 35 42 50 61 76 90 104 119 133 142 146 148 150 152 154 156 158 159 161 163 165 167 169 170 172 174 176 178 180 182 183 184 186 187 187 187 187 186 184 183 182 181 180 179 178 177 175 173 172 171 169 169 168 167 165 163 161 158 156 154 152 150 148 147 146 145 144 143 143 142 141 141 141 141 140 140 140 140 140 140 139 138 138 138 138 138 137 137 137 137 136 136 137 137 137 138 139 140 140 141 141 142 142 142 142 143 144 145 145 146 147 147 148 148 149 149 150 150 150 150 150 151 151 151 152 152 151 151 151 151 151 152 152 152 153 154 156 157 159 158 158 159 161 161 160 160 159 158 157 156 155 154 153 153 152 151 150 150 149 148 147 147 146 146 146 145 145 145 144 144 144 144 144 144 144 145 146 147 148 148 148 147 148 149 151 153 154 155 155 155 156 156 155 155 154 154 155 156 157 158 159 161 163 164 165 165 166 167 169 171 171 171 170 171 171 172 173 175 176 176 176 173 169 166 162 159 157 154 152 148 144 141 142 145 150 156 163 169 175 181 188 196 204 212 219 227 234 242 252 263 274 283 288 290 292 295 297 297 297 297 297 298 298 299 299 299 299 299 301 303 304 306 306 308 309 310 311 311 311 311 311 311 310 310 309 308 308 309 309 309 309 308 308 308 308 309 308 308 309 311 313 314 316 317 318 319 320 321 322 323 323 323 324 325 325 325 325 325 325 325 325 326 327 327 327 328 328 329 329 330 331 332 333 333 334 336 337 338 339 340 341 342 342 342 343 345 347 350 354 360 366 370 373 374 375 375 375 375 375 375 375 375 374 374 373 373 374 373 372 373 374 375 374 374 374 374 374 374 375 377 380 382 384 386 388 388 385 381 376 372 368 365 363 358 352 346 339 333 328 324 320 315 310 304 299 294 289 284 279 275 270 266 262 257 251 245 239 232 226 220 213 207 201 195 189 184 180 175 171 168 164 160 154 148 142 135 129 124 118 112 105 99 92 85 79 73 66 59 52 45 38 32 25 17 9 2 0 0 0 0 1 -9999 -9999 -9999 -9999 -9999 -9999 -9999 -9999 -9999 -9999 -9999 -9999 -9999 -9999 -9999 -9999 -9999 -9999 -9999 -9999 -9999 -9999 -9999 -9999 -9999 -9999 -9999 -9999 -9999 -9999 -9999 -9999 -9999 -9999 -9999 -9999 -9999 -9999 -9999 -9999 -9999 -9999 -9999 -9999 -9999 -9999 -9999 -9999 -9999 -9999 -9999 -9999 -9999 -9999 -9999 -9999 -9999 -9999 -9999 -9999 -9999 -9999 -9999 -9999 -9999 -9999 -9999 -9999 -9999 -9999 -9999 -9999 -9999 -9999 -9999 -9999 -9999 -9999 -9999 -9999
-9999 -9999 -9999 -9999 -9999 -9999 -9999 -9999 -9999 -9999 -9999 -9999 -9999 -9999 -9999 -9999 -9999 -9999 -9999 -9999 -9999 -9999 -9999 -9999 -9999 -9999 -9999 -9999 -9999 -9999 -9999 -9999 -9999 -9999 -9999 -9999 -9999 -9999 -9999 -9999 -9999 -9999 -9999 -9999 -9999 -9999 -9999 -9999 -9999 -9999 -9999 -9999 -9999 -9999 -9999 -9999 -9999 -9999 -9999 -9999 -9999 -9999 -9999 -9999 -9999 -9999 1 1 1 1 1 1 5 11 18 25 31 37 44 53 66 79 94 109 124 136 142 146 148 150 152 155 157 159 161 162 164 166 168 170 172 174 176 177 179 181 183 184 186 187 188 188 188 188 187 186 185 185 184 183 182 181 179 177 176 174 173 172 172 171 169 167 165 163 161 159 157 155 153 152 151 149 148 148 148 147 146 146 146 146 145 145 145 145 144 144 143 142 142 142 142 141 141 141 141 141 141 141 141 141 141 142 143 143 144 144 145 145 145 145 146 146 147 148 149 149 150 151 151 152 152 153 153 153 154 154 154 154 154 155 155 155 155 155 155 155 155 156 156 156 157 159 160 162 163 163 162 163 165 165 165 164 163 162 161 160 159 158 157 156 156 155 154 153 152 151 150 150 149 149 149 148 148 147 147 147 147 147 147 146 146 147 148 149 150 150 151 151 151 152 153 155 156 156 157 158 158 158 158 157 157 157 158 158 159 160 161 163 164 166 167 167 168 169 171 173 173 173 173 173 174 175 176 177 177 176 174 169 166 162 159 157 155 153 151 149 144 142 145 151 156 161 167 173 179 185 191 198 206 215 223 230 238 247 257 267 277 286 293 296 299 302 303 303 302 301 301 301 302 302 303 302 302 302 303 304 306 307 308 309 310 311 312 312 312 312 312 311 311 310 310 309 310 310 311 311 310 310 310 309 309 309 309 308 309 311 312 313 315 316 317 318 320 321 322 323 323 324 325 326 326 326 326 326 326 326 326 326 327 327 328 328 329 329 330 331 332 332 333 334 335 336 337 338 339 340 341 341 342 342 343 345 347 350 354 358 363 367 370 372 373 373 374 374 374 374 374 373 373 372 372 372 372 372 372 372 373 374 374 374 374 374 374 374 374 376 378 381 383 385 388 389 387 384 379 374 370 366 364 360 354 349 342 336 331 327 323 318 312 306 300 295 290 287 283 278 274 270 264 258 252 246 239 232 226 220 213 208 203 198 193 189 185 180 176 172 167 161 155 148 142 136 130 124 118 112 106 100 93 86 79 73 65 58 51 43 36 30 23 16 9 2 0 0 0 0 1 -9999 -9999 -9999 -9999 -9999 -9999 -9999 -9999 -9999 -9999 -9999 -9999 -9999 -9999 -9999 -9999 -9999 -9999 -9999 -9999 -9999 -9999 -9999 -9999 -9999 -9999 -9999 -9999 -9999 -9999 -9999 -9999 -9999 -9999 -9999 -9999 -9999 -9999 -9999 -9999 -9999 -9999 -9999 -9999 -9999 -9999 -9999 -9999 -9999 -9999 -9999 -9999 -9999 -9999 -9999 -9999 -9999 -9999 -9999 -9999 -9999 -9999 -9999 -9999 -9999 -9999 -9999 -9999 -9999 -9999 -9999 -9999 -9999 -9999 -9999 -9999 -9999 -9999 -9999 -9999
-9999 -9999 -9999 -9999 -9999 -9999 -9999 -9999 -9999 -9999 -9999 -9999 -9999 -9999 -9999 -9999 -9999 -9999 -9999 -9999 -9999 -9999 -9999 -9999 -9999 -9999 -9999 -9999 -9999 -9999 -9999 -9999 -9999 -9999 -9999 -9999 -9999 -9999 -9999 -9999 -9999 -9999 -9999 -9999 -9999 -9999 -9999 -9999 -9999 -9999 -9999 -9999 -9999 -9999 -9999 -9999 -9999 -9999 -9999 -9999 -9999 -9999 -9999 -9999 -9999 -9999 1 1 1 1 1 1 4 10 16 23 29 35 42 49 58 69 83 98 113 126 136 143 147 149 152 154 156 158 160 161 163 165 167 169 171 173 175 177 179 180 182 184 185 187 188 189 189 189 189 189 189 188 187 186 186 185 184 182 180 179 177 176 176 175 173 171 169 167 166 164 162 160 158 157 156 154 153 153 152 152 151 151 151 151 151 151 151 150 149 148 146 145 144 144 145 145 145 145 145 145 145 145 145 145 145 146 146 147 147 148 148 149 149 149 149 150 151 152 152 153 154 154 155 155 156 157 157 157 157 157 158 158 158 158 158 158 158 158 158 159 159 160 160 160 161 163 165 167 168 168 167 167 169 169 169 169 167 166 165 164 163 162 161 160 159 158 157 156 156 155 154 153 152 152 152 151 151 150 150 149 150 150 149 149 149 149 150 151 152 153 154 154 154 154 155 156 158 159 160 160 160 161 160 160 160 160 160 161 162 163 164 165 166 167 168 169 170 171 173 175 175 175 175 176 177 177 178 179 178 175 171 166 162 159 157 155 152 150 150 148 144 144 147 153 159 164 169 175 181 188 194 201 209 217 225 234 242 251 261 271 281 290 297 302 305 308 309 308 307 306 305 305 305 306 306 305 304 305 305 306 308 310 310 311 312 313 313 312 312 312 312 312 311 311 311 311 311 311 312 312 312 311 311 311 310 310 310 309 310 310 311 312 313 315 316 317 319 320 322 323 324 325 326 327 327 327 327 327 327 327 327 327 327 328 328 328 329 329 330 331 332 333 334 334 335 336 338 338 339 340 341 341 342 343 344 346 347 350 353 355 359 361 364 367 369 370 371 372 371 372 372 371 371 370 370 369 370 371 372 373 373 373 373 373 373 373 373 374 374 375 377 379 382 384 387 388 388 386 381 376 372 368 364 361 357 352 345 338 333 329 325 320 314 308 303 297 293 289 284 280 276 270 264 258 252 246 240 233 227 222 217 212 206 201 196 192 188 184 180 174 168 161 154 148 141 135 129 123 117 111 105 99 92 85 78 70 62 56 49 42 34 28 22 15 8 2 0 0 0 1 1 -9999 -9999 -9999 -9999 -9999 -9999 -9999 -9999 -9999 -9999 -9999 -9999 -9999 -9999 -9999 -9999 -9999 -9999 -9999 -9999 -9999 -9999 -9999 -9999 -9999 -9999 -9999 -9999 -9999 -9999 -9999 -9999 -9999 -9999 -9999 -9999 -9999 -9999 -9999 -9999 -9999 -9999 -9999 -9999 -9999 -9999 -9999 -9999 -9999 -9999 -9999 -9999 -9999 -9999 -9999 -9999 -9999 -9999 -9999 -9999 -9999 -9999 -9999 -9999 -9999 -9999 -9999 -9999 -9999 -9999 -9999 -9999 -9999 -9999 -9999 -9999 -9999 -9999 -9999 -9999
-9999 -9999 -9999 -9999 -9999 -9999 -9999 -9999 -9999 -9999 -9999 -9999 -9999 -9999 -9999 -9999 -9999 -9999 -9999 -9999 -9999 -9999 -9999 -9999 -9999 -9999 -9999 -9999 -9999 -9999 -9999 -9999 -9999 -9999 -9999 -9999 -9999 -9999 -9999 -9999 -9999 -9999 -9999 -9999 -9999 -9999 -9999 -9999 -9999 -9999 -9999 -9999 -9999 -9999 -9999 -9999 -9999 -9999 -9999 -9999 -9999 -9999 -9999 -9999 -9999 -9999 1 1 1 1 1 1 3 8 14 21 27 33 39 46 52 60 73 87 101 114 127 138 144 148 151 153 155 157 159 160 162 164 166 168 170 172 174 176 178 179 181 183 184 186 188 189 190 190 191 191 191 191 190 190 189 189 188 187 185 184 182 181 180 180 178 176 174 172 170 169 167 164 163 162 161 160 158 158 157 156 156 155 155 156 156 156 156 155 154 152 150 148 147 147 148 149 149 149 148 148 149 149 149 149 149 149 150 150 151 152 152 152 152 153 153 154 155 155 156 157 157 158 159 159 160 161 161 161 161 161 161 161 162 162 161 161 161 161 162 163 163 163 164 165 166 168 170 171 173 173 173 172 173 173 173 173 172 170 169 168 167 166 165 164 163 162 161 160 159 158 157 156 155 155 155 154 154 153 152 152 153 153 152 152 151 152 153 153 154 155 156 156 156 156 157 158 159 161 162 162 163 163 163 163 163 163 163 163 164 165 166 167 168 169 170 171 172 173 175 177 177 178 177 178 179 180 180 179 177 173 168 163 160 157 155 153 150 148 148 147 146 147 150 153 158 164 169 175 182 190 197 204 211 218 227 236 245 255 265 275 286 295 302 307 310 313 313 312 311 309 308 307 307 307 308 307 307 307 308 309 311 311 312 312 313 314 313 313 313 313 313 312 312 312 312 312 312 312 312 313 312 312 312 311 311 311 311 310 310 310 310 310 311 313 314 315 317 319 320 322 323 324 325 325 326 326 327 327 327 327 327 328 328 328 328 329 329 330 330 331 333 334 335 335 335 337 338 339 339 340 341 342 343 344 346 347 349 350 352 353 355 357 359 362 365 366 367 368 368 369 369 369 368 367 367 367 367 369 371 372 373 373 373 373 373 373 373 373 374 374 376 378 380 383 385 387 388 387 383 378 374 370 366 362 358 354 348 341 335 330 326 321 316 311 305 300 295 290 285 281 275 269 263 258 252 247 241 236 230 225 221 216 210 205 200 196 191 187 181 175 168 160 153 146 140 133 127 121 116 110 104 97 90 83 76 68 60 53 46 39 32 26 20 13 5 0 0 0 0 1 1 -9999 -9999 -9999 -9999 -9999 -9999 -9999 -9999 -9999 -9999 -9999 -9999 -9999 -9999 -9999 -9999 -9999 -9999 -9999 -9999 -9999 -9999 -9999 -9999 -9999 -9999 -9999 -9999 -9999 -9999 -9999 -9999 -9999 -9999 -9999 -9999 -9999 -9999 -9999 -9999 -9999 -9999 -9999 -9999 -9999 -9999 -9999 -9999 -9999 -9999 -9999 -9999 -9999 -9999 -9999 -9999 -9999 -9999 -9999 -9999 -9999 -9999 -9999 -9999 -9999 -9999 -9999 -9999 -9999 -9999 -9999 -9999 -9999 -9999 -9999 -9999 -9999 -9999 -9999 -9999
-9999 -9999 -9999 -9999 -9999 -9999 -9999 -9999 -9999 -9999 -9999 -9999 -9999 -9999 -9999 -9999 -9999 -9999 -9999 -9999 -9999 -9999 -9999 -9999 -9999 -9999 -9999 -9999 -9999 -9999 -9999 -9999 -9999 -9999 -9999 -9999 -9999 -9999 -9999 -9999 -9999 -9999 -9999 -9999 -9999 -9999 -9999 -9999 -9999 -9999 -9999 -9999 -9999 -9999 -9999 -9999 -9999 -9999 -9999 -9999 -9999 -9999 -9999 -9999 -9999 -9999 1 1 1 1 1 1 2 6 12 18 24 29 36 43 48 55 64 77 91 103 115 129 140 146 149 151 153 156 157 159 161 163 165 167 169 170 172 174 176 178 180 181 183 185 187 189 190 191 192 193 194 194 193 193 193 193 192 191 190 188 187 186 185 184 183 181 179 178 176 174 171 169 167 167 166 165 163 162 162 161 160 160 160 160 160 160 160 160 159 157 155 154 153 153 153 154 153 152 152 152 152 152 152 152 153 153 153 154 154 155 156 156 156 157 157 158 158 159 160 160 161 162 163 163 164 164 165 165 165 165 165 165 165 165 165 164 164 164 165 166 166 167 169 171 173 175 176 177 178 179 178 178 178 178 177 177 176 174 173 172 171 170 169 168 167 166 165 164 163 162 160 159 158 158 157 157 156 156 155 155 155 155 155 154 154 154 155 156 157 157 158 158 159 159 159 160 161 163 164 165 165 165 165 165 165 165 165 166 167 168 169 169 170 171 172 173 174 175 177 179 180 180 180 180 180 181 181 178 174 169 165 160 158 156 153 151 149 148 149 149 152 155 156 156 159 163 168 175 182 190 198 206 212 219 227 237 248 259 270 280 290 299 306 311 315 317 316 315 314 312 311 310 309 309 309 310 310 310 310 311 312 313 313 313 314 314 314 314 314 314 313 313 312 312 312 313 312 312 312 313 313 313 313 312 312 312 312 311 310 310 310 310 310 311 311 312 314 316 318 320 322 323 324 324 325 326 326 327 327 327 328 328 328 328 329 329 330 330 331 332 333 334 335 335 336 337 338 339 339 340 341 343 344 346 348 349 350 351 353 354 355 355 356 358 361 362 363 364 365 365 365 365 365 365 365 366 366 368 370 371 372 373 373 373 373 373 373 373 374 374 375 377 379 381 384 386 388 388 385 381 377 372 368 363 359 355 349 343 337 332 328 323 318 312 307 301 296 291 286 281 276 270 264 259 254 249 244 238 233 229 224 219 214 209 204 199 193 187 181 175 168 160 153 147 140 133 126 120 114 108 102 95 88 81 73 64 57 50 44 36 30 25 19 12 3 0 0 0 0 1 1 -9999 -9999 -9999 -9999 -9999 -9999 -9999 -9999 -9999 -9999 -9999 -9999 -9999 -9999 -9999 -9999 -9999 -9999 -9999 -9999 -9999 -9999 -9999 -9999 -9999 -9999 -9999 -9999 -9999 -9999 -9999 -9999 -9999 -9999 -9999 -9999 -9999 -9999 -9999 -9999 -9999 -9999 -9999 -9999 -9999 -9999 -9999 -9999 -9999 -9999 -9999 -9999 -9999 -9999 -9999 -9999 -9999 -9999 -9999 -9999 -9999 -9999 -9999 -9999 -9999 -9999 -9999 -9999 -9999 -9999 -9999 -9999 -9999 -9999 -9999 -9999 -9999 -9999 -9999 -9999
-9999 -9999 -9999 -9999 -9999 -9999 -9999 -9999 -9999 -9999 -9999 -9999 -9999 -9999 -9999 -9999 -9999 -9999 -9999 -9999 -9999 -9999 -9999 -9999 -9999 -9999 -9999 -9999 -9999 -9999 -9999 -9999 -9999 -9999 -9999 -9999 -9999 -9999 -9999 -9999 -9999 -9999 -9999 -9999 -9999 -9999 -9999 -9999 -9999 -9999 -9999 -9999 -9999 -9999 -9999 -9999 -9999 -9999 -9999 -9999 -9999 -9999 -9999 -9999 -9999 -9999 1 1 1 1 1 1 1 4 8 14 20 27 33 40 44 50 58 70 82 94 106 120 134 143 147 150 152 154 156 158 159 161 163 165 167 169 171 173 175 177 178 180 182 184 186 188 190 191 192 193 195 196 196 196 197 196 196 195 194 193 192 191 189 188 188 186 185 183 181 179 177 174 172 171 171 170 168 167 167 166 165 164 164 164 165 165 164 164 163 162 161 160 160 159 158 158 158 157 156 156 156 156 156 156 156 156 157 157 158 158 159 159 160 160 160 161 162 162 163 163 164 165 166 167 167 168 168 168 168 168 168 168 169 169 168 168 168 167 168 169 170 172 175 177 179 181 182 183 184 183 183 183 182 182 182 181 180 179 177 176 175 174 173 172 171 169 169 168 167 165 163 162 161 161 160 160 159 159 158 158 158 158 157 157 156 156 157 158 159 160 160 161 161 161 162 162 163 164 166 166 167 167 167 167 167 168 168 168 169 170 171 172 172 173 175 175 176 178 179 180 181 182 182 182 182 182 180 176 171 166 162 158 156 154 151 149 148 149 152 155 159 163 165 164 163 164 168 175 182 189 197 204 211 218 227 239 251 264 275 285 294 302 308 314 318 320 319 318 316 315 314 313 312 312 312 312 312 312 313 313 314 314 314 314 315 315 315 314 314 314 313 313 313 313 313 313 313 313 313 314 314 314 314 314 315 315 315 314 312 310 310 310 310 310 310 310 312 314 316 318 321 322 323 324 324 325 325 326 327 327 327 327 328 328 329 329 330 330 331 332 333 334 334 335 336 337 338 339 340 341 342 344 346 348 349 351 352 354 356 357 358 358 358 359 359 361 362 362 363 364 364 364 365 365 366 367 368 370 371 371 373 373 374 374 373 373 373 373 374 374 375 376 378 380 382 385 388 389 387 383 380 375 369 365 360 355 351 345 340 335 330 325 319 314 308 303 297 292 287 282 278 271 266 261 256 252 246 241 236 232 227 222 216 211 205 200 193 187 180 174 167 160 154 148 141 133 125 118 112 105 98 92 85 78 71 64 58 52 45 38 32 27 21 13 4 0 0 0 0 1 1 -9999 -9999 -9999 -9999 -9999 -9999 -9999 -9999 -9999 -9999 -9999 -9999 -9999 -9999 -9999 -9999 -9999 -9999 -9999 -9999 -9999 -9999 -9999 -9999 -9999 -9999 -9999 -9999 -9999 -9999 -9999 -9999 -9999 -9999 -9999 -9999 -9999 -9999 -9999 -9999 -9999 -9999 -9999 -9999 -9999 -9999 -9999 -9999 -9999 -9999 -9999 -9999 -9999 -9999 -9999 -9999 -9999 -9999 -9999 -9999 -9999 -9999 -9999 -9999 -9999 -9999 -9999 -9999 -9999 -9999 -9999 -9999 -9999 -9999 -9999 -9999 -9999 -9999 -9999 -9999
-9999 -9999 -9999 -9999 -9999 -9999 -9999 -9999 -9999 -9999 -9999 -9999 -9999 -9999 -9999 -9999 -9999 -9999 -9999 -9999 -9999 -9999 -9999 -9999 -9999 -9999 -9999 -9999 -9999 -9999 -9999 -9999 -9999 -9999 -9999 -9999 -9999 -9999 -9999 -9999 -9999 -9999 -9999 -9999 -9999 -9999 -9999 -9999 -9999 -9999 -9999 -9999 -9999 -9999 -9999 -9999 -9999 -9999 -9999 -9999 -9999 -9999 -9999 -9999 -9999 -9999 1 1 1 1 1 1 1 2 5 10 17 24 30 35 40 45 53 63 75 86 98 110 125 138 145 148 151 153 155 156 158 160 162 164 166 168 169 172 174 176 178 179 181 183 185 187 189 191 192 194 195 197 198 198 199 200 200 200 199 198 198 196 195 194 193 192 191 189 187 185 182 180 178 176 176 175 174 173 172 171 170 169 169 169 170 169 169 168 168 167 167 165 164 164 163 162 162 161 161 160 160 160 160 160 160 160 160 161 161 162 162 163 163 163 164 164 165 165 166 166 167 168 169 170 170 171 171 171 171 171 171 171 172 172 171 171 170 170 171 173 175 178 181 183 186 187 188 189 189 188 187 188 187 186 186 185 184 183 181 180 179 178 177 176 174 173 172 171 170 168 166 165 164 164 163 163 162 162 161 161 161 160 160 159 159 158 159 160 161 162 162 163 163 164 164 165 165 166 167 168 169 169 169 170 170 170 170 170 171 172 173 174 175 176 177 178 179 180 181 182 183 183 184 184 184 182 179 173 168 163 160 157 154 152 150 148 148 151 155 160 165 169 171 172 170 168 169 174 180 188 195 201 209 218 229 241 255 268 279 289 297 303 309 316 320 322 322 320 319 318 317 316 315 314 314 313 314 315 315 315 315 315 315 315 315 315 315 315 314 314 314 314 314 314 314 314 314 314 314 315 315 315 316 316 316 316 316 316 314 311 310 310 310 310 310 310 310 312 314 317 319 321 322 323 324 324 325 326 326 327 327 327 328 328 329 330 330 331 331 332 333 334 334 335 336 338 339 340 341 342 343 345 347 349 351 353 355 358 360 362 363 364 363 363 363 364 364 365 365 365 365 366 367 368 370 371 371 372 372 372 374 374 374 374 373 373 373 373 373 374 375 376 377 379 381 384 387 389 388 385 381 376 371 366 362 357 352 347 342 337 332 327 321 315 310 304 299 294 289 284 279 274 268 263 258 254 249 244 239 234 229 224 218 212 206 199 192 186 180 174 168 161 155 148 141 132 124 117 111 104 98 93 87 81 75 69 63 55 49 43 36 30 23 15 6 0 0 0 0 1 1 1 -9999 -9999 -9999 -9999 -9999 -9999 -9999 -9999 -9999 -9999 -9999 -9999 -9999 -9999 -9999 -9999 -9999 -9999 -9999 -9999 -9999 -9999 -9999 -9999 -9999 -9999 -9999 -9999 -9999 -9999 -9999 -9999 -9999 -9999 -9999 -9999 -9999 -9999 -9999 -9999 -9999 -9999 -9999 -9999 -9999 -9999 -9999 -9999 -9999 -9999 -9999 -9999 -9999 -9999 -9999 -9999 -9999 -9999 -9999 -9999 -9999 -9999 -9999 -9999 -9999 -9999 -9999 -9999 -9999 -9999 -9999 -9999 -9999 -9999 -9999 -9999 -9999 -9999 -9999
-9999 -9999 -9999 -9999 -9999 -9999 -9999 -9999 -9999 -9999 -9999 -9999 -9999 -9999 -9999 -9999 -9999 -9999 -9999 -9999 -9999 -9999 -9999 -9999 -9999 -9999 -9999 -9999 -9999 -9999 -9999 -9999 -9999 -9999 -9999 -9999 -9999 -9999 -9999 -9999 -9999 -9999 -9999 -9999 -9999 -9999 -9999 -9999 -9999 -9999 -9999 -9999 -9999 -9999 -9999 -9999 -9999 -9999 -9999 -9999 -9999 -9999 -9999 -9999 -9999 -9999 -9999 1 1 1 1 1 1 1 2 6 13 19 25 30 35 41 48 57 67 78 89 101 116 129 140 145 149 151 153 155 157 159 161 163 165 166 168 170 173 175 177 179 180 182 184 186 188 191 192 194 195 197 199 200 201 202 203 204 203 203 203 202 201 200 199 198 197 195 193 190 188 186 183 182 181 180 179 178 177 176 175 174 174 174 175 174 173 173 172 172 171 169 168 167 166 166 166 165 165 164 164 164 164 164 164 164 164 165 165 165 166 166 167 167 167 168 168 168 169 170 171 172 173 174 175 175 175 175 174 174 174 174 175 175 174 174 173 173 175 177 180 183 186 190 192 194 194 194 194 192 191 191 191 191 190 189 189 187 185 184 183 182 181 179 178 177 175 174 173 171 170 169 168 167 166 166 165 165 165 164 164 163 162 162 161 161 161 162 164 164 165 165 166 166 167 167 167 168 169 170 171 171 172 172 172 172 173 173 173 174 175 176 177 178 179 180 181 182 183 183 184 185 185 185 184 181 176 171 166 162 158 155 153 151 149 148 149 154 159 164 169 174 177 178 178 175 173 175 180 186 194 201 209 219 231 244 259 272 283 292 299 305 311 317 321 323 323 322 322 321 320 318 317 316 316 316 316 316 316 316 316 316 316 316 316 316 316 315 315 315 315 315 314 315 315 315 315 315 315 316 316 316 316 316 316 316 317 317 315 313 312 310 310 310 310 310 310 310 313 317 319 321 322 323 323 324 325 325 325 326 327 327 328 328 329 330 330 331 331 332 333 334 335 336 337 338 339 341 342 343 344 346 348 350 352 354 357 361 364 367 368 368 368 367 368 369 369 369 369 369 369 370 371 372 373 373 373 373 373 373 373 373 373 373 373 373 373 373 373 374 375 376 376 378 380 383 386 388 388 385 381 376 372 367 363 358 353 347 343 339 334 328 323 317 312 307 301 296 291 286 281 276 271 266 261 256 251 245 240 235 229 224 218 212 205 199 192 186 180 174 168 161 154 147 140 132 123 117 113 108 103 97 92 87 81 75 67 60 54 46 38 31 24 17 8 1 0 0 0 1 1 1 -9999 -9999 -9999 -9999 -9999 -9999 -9999 -9999 -9999 -9999 -9999 -9999 -9999 -9999 -9999 -9999 -9999 -9999 -9999 -9999 -9999 -9999 -9999 -9999 -9999 -9999 -9999 -9999 -9999 -9999 -9999 -9999 -9999 -9999 -9999 -9999 -9999 -9999 -9999 -9999 -9999 -9999 -9999 -9999 -9999 -9999 -9999 -9999 -9999 -9999 -9999 -9999 -9999 -9999 -9999 -9999 -9999 -9999 -9999 -9999 -9999 -9999 -9999 -9999 -9999 -9999 -9999 -9999 -9999 -9999 -9999 -9999 -9999 -9999 -9999 -9999 -9999 -9999 -9999
-9999 -9999 -9999 -9999 -9999 -9999 -9999 -9999 -9999 -9999 -9999 -9999 -9999 -9999 -9999 -9999 -9999 -9999 -9999 -9999 -9999 -9999 -9999 -9999 -9999 -9999 -9999 -9999 -9999 -9999 -9999 -9999 -9999 -9999 -9999 -9999 -9999 -9999 -9999 -9999 -9999 -9999 -9999 -9999 -9999 -9999 -9999 -9999 -9999 -9999 -9999 -9999 -9999 -9999 -9999 -9999 -9999 -9999 -9999 -9999 -9999 -9999 -9999 -9999 -9999 -9999 -9999 1 1 1 1 1 1 1 1 4 9 14 20 25 31 37 43 51 60 70 80 92 105 118 129 139 146 149 151 154 156 157 159 161 163 165 167 169 172 174 176 177 179 181 183 186 188 191 193 194 196 197 199 201 202 204 205 206 207 207 207 207 207 206 205 203 202 201 198 196 194 192 190 188 187 186 184 183 182 181 180 179 179 179 180 179 178 177 177 176 175 173 172 171 170 170 169 169 168 168 168 168 168 168 168 168 168 168 168 169 169 170 171 171 171 171 172 172 173 174 175 176 177 178 179 180 180 180 179 178 178 177 177 177 177 177 177 178 179 182 185 188 192 197 200 201 200 200 199 197 195 194 195 195 194 193 193 192 190 188 187 186 184 183 182 180 179 177 176 174 173 172 171 170 170 169 169 168 168 167 167 166 165 164 164 164 164 165 166 167 167 168 168 168 169 169 170 170 171 172 173 174 175 175 175 175 175 176 176 177 177 178 179 180 181 182 183 184 184 185 186 186 186 186 184 180 175 170 165 161 157 154 152 150 148 148 151 157 163 169 174 179 182 185 185 184 181 180 182 186 193 202 211 220 233 248 263 275 286 294 301 307 313 318 322 323 323 323 323 323 322 321 319 318 318 317 317 317 317 317 317 317 317 317 317 316 316 316 316 316 316 316 316 316 316 316 316 316 316 316 316 316 316 316 316 316 318 318 317 316 314 312 310 310 310 310 311 311 314 318 320 321 322 323 323 324 324 324 325 326 326 327 327 328 329 329 330 331 332 332 333 334 335 336 337 339 340 341 343 344 345 347 349 351 353 355 358 362 367 370 372 371 371 371 371 372 373 372 372 372 372 373 373 374 374 374 374 373 373 373 373 373 373 373 373 373 373 373 373 374 375 375 376 377 379 382 385 388 388 385 381 377 372 368 364 359 354 348 344 340 336 330 325 320 315 309 304 298 293 288 283 278 272 267 262 257 251 246 240 235 229 224 218 212 205 198 192 185 179 173 166 158 152 146 139 132 125 121 117 113 107 102 96 91 85 78 71 64 56 48 40 33 26 18 9 2 0 0 0 0 1 1 -9999 -9999 -9999 -9999 -9999 -9999 -9999 -9999 -9999 -9999 -9999 -9999 -9999 -9999 -9999 -9999 -9999 -9999 -9999 -9999 -9999 -9999 -9999 -9999 -9999 -9999 -9999 -9999 -9999 -9999 -9999 -9999 -9999 -9999 -9999 -9999 -9999 -9999 -9999 -9999 -9999 -9999 -9999 -9999 -9999 -9999 -9999 -9999 -9999 -9999 -9999 -9999 -9999 -9999 -9999 -9999 -9999 -9999 -9999 -9999 -9999 -9999 -9999 -9999 -9999 -9999 -9999 -9999 -9999 -9999 -9999 -9999 -9999 -9999 -9999 -9999 -9999 -9999 -9999
-9999 -9999 -9999 -9999 -9999 -9999 -9999 -9999 -9999 -9999 -9999 -9999 -9999 -9999 -9999 -9999 -9999 -9999 -9999 -9999 -9999 -9999 -9999 -9999 -9999 -9999 -9999 -9999 -9999 -9999 -9999 -9999 -9999 -9999 -9999 -9999 -9999 -9999 -9999 -9999 -9999 -9999 -9999 -9999 -9999 -9999 -9999 -9999 -9999 -9999 -9999 -9999 -9999 -9999 -9999 -9999 -9999 -9999 -9999 -9999 -9999 -9999 -9999 -9999 -9999 -9999 -9999 -9999 1 1 1 1 1 1 1 2 5 9 15 21 27 33 39 46 53 63 72 82 92 104 116 129 140 146 149 152 154 156 158 160 162 164 166 168 170 172 174 176 178 180 183 185 187 190 192 194 196 198 200 201 203 205 207 208 209 210 211 211 211 211 210 209 207 206 205 203 200 197 195 193 192 191 190 188 187 186 185 184 184 184 184 184 183 182 181 181 179 178 176 175 175 174 173 173 172 172 172 172 172 171 171 171 171 171 172 172 173 173 174 174 174 174 175 176 177 178 179 180 181 182 183 184 184 184 184 183 182 182 180 180 180 180 182 184 186 190 194 197 201 205 209 209 208 207 205 202 200 199 199 199 198 197 196 196 194 193 191 190 188 187 185 184 182 181 179 177 176 175 174 173 173 172 172 171 171 170 170 169 168 167 167 167 167 167 168 169 170 170 170 171 171 172 172 172 173 174 176 177 177 177 177 177 178 178 179 179 180 180 181 182 183 184 185 185 186 187 187 188 188 187 184 180 175 170 166 161 157 153 151 149 148 149 153 160 166 172 178 183 186 190 192 193 191 189 188 190 195 203 213 224 237 252 266 277 287 295 302 308 314 319 322 322 322 322 323 323 322 321 320 320 319 318 318 318 318 318 317 317 318 318 317 317 317 317 317 317 317 316 316 316 316 316 316 316 316 317 317 317 317 317 316 316 317 318 318 318 316 314 313 311 311 313 314 315 317 319 320 321 322 322 323 324 324 324 324 325 326 327 327 328 329 329 330 331 332 333 333 334 335 337 338 339 340 342 343 345 346 348 350 352 353 356 359 363 368 371 372 372 372 373 373 374 374 374 374 374 374 374 374 374 374 374 373 373 373 373 373 373 373 373 373 374 373 373 374 374 375 375 375 376 378 380 383 386 387 385 381 377 373 369 365 360 355 350 346 342 338 332 327 322 317 311 306 300 295 290 285 279 274 268 262 257 251 246 241 235 230 224 219 212 205 198 191 185 178 171 163 156 152 147 142 135 130 126 121 117 111 106 100 94 88 80 72 64 57 49 43 36 29 21 11 4 0 0 0 0 0 1 -9999 -9999 -9999 -9999 -9999 -9999 -9999 -9999 -9999 -9999 -9999 -9999 -9999 -9999 -9999 -9999 -9999 -9999 -9999 -9999 -9999 -9999 -9999 -9999 -9999 -9999 -9999 -9999 -9999 -9999 -9999 -9999 -9999 -9999 -9999 -9999 -9999 -9999 -9999 -9999 -9999 -9999 -9999 -9999 -9999 -9999 -9999 -9999 -9999 -9999 -9999 -9999 -9999 -9999 -9999 -9999 -9999 -9999 -9999 -9999 -9999 -9999 -9999 -9999 -9999 -9999 -9999 -9999 -9999 -9999 -9999 -9999 -9999 -9999 -9999 -9999 -9999 -9999 -9999
-9999 -9999 -9999 -9999 -9999 -9999 -9999 -9999 -9999 -9999 -9999 -9999 -9999 -9999 -9999 -9999 -9999 -9999 -9999 -9999 -9999 -9999 -9999 -9999 -9999 -9999 -9999 -9999 -9999 -9999 -9999 -9999 -9999 -9999 -9999 -9999 -9999 -9999 -9999 -9999 -9999 -9999 -9999 -9999 -9999 -9999 -9999 -9999 -9999 -9999 -9999 -9999 -9999 -9999 -9999 -9999 -9999 -9999 -9999 -9999 -9999 -9999 -9999 -9999 -9999 -9999 -9999 -9999 1 1 1 1 1 1 1 1 2 5 10 16 23 29 36 42 49 57 66 73 82 92 104 117 130 141 146 150 152 154 156 158 161 163 164 167 169 171 173 175 177 179 181 184 186 189 191 194 196 198 200 202 204 205 207 209 211 212 214 214 215 215 214 214 213 212 210 208 205 202 200 198 197 196 195 194 192 190 190 189 189 189 189 188 188 187 186 185 184 183 181 180 180 179 178 177 177 177 177 177 176 176 176 176 176 176 176 176 177 177 177 177 177 177 178 179 180 181 183 184 185 186 187 188 188 188 187 187 186 186 185 185 185 186 188 193 198 203 206 209 212 215 217 219 218 215 212 208 205 205 205 204 202 201 200 199 198 197 195 193 192 190 189 187 186 184 182 181 180 178 177 177 176 175 175 174 174 173 173 172 171 170 170 169 169 170 171 171 172 172 173 173 173 174 174 175 176 177 178 179 179 180 180 180 180 181 181 182 182 183 184 184 185 186 186 187 188 188 189 189 189 188 185 181 176 172 167 161 157 153 150 149 148 151 155 162 168 174 180 186 191 196 199 201 201 199 197 197 201 208 218 229 242 256 269 279 289 297 303 309 315 319 321 320 320 320 321 322 322 321 321 321 320 320 320 319 319 318 318 319 319 318 318 318 318 317 317 317 317 316 316 316 316 316 317 317 317 317 317 318 318 317 316 316 317 318 319 320 318 316 314 313 314 316 318 319 320 320 321 321 322 322 323 324 324 324 325 325 326 327 327 328 329 329 330 331 332 333 334 335 336 337 338 339 341 342 343 345 347 349 351 352 354 356 359 362 367 370 372 373 373 373 374 375 375 374 374 375 374 374 374 374 374 374 373 373 373 373 373 373 374 374 374 374 374 374 374 375 375 375 375 376 377 379 381 383 385 384 381 378 375 371 367 362 357 352 348 344 339 334 328 323 318 313 307 301 296 291 286 281 275 269 263 258 252 247 242 237 231 224 218 211 204 198 191 185 178 172 165 160 155 151 146 140 135 130 124 118 113 107 100 94 87 80 72 66 60 53 47 40 33 24 14 6 1 0 0 0 0 1 -9999 -9999 -9999 -9999 -9999 -9999 -9999 -9999 -9999 -9999 -9999 -9999 -9999 -9999 -9999 -9999 -9999 -9999 -9999 -9999 -9999 -9999 -9999 -9999 -9999 -9999 -9999 -9999 -9999 -9999 -9999 -9999 -9999 -9999 -9999 -9999 -9999 -9999 -9999 -9999 -9999 -9999 -9999 -9999 -9999 -9999 -9999 -9999 -9999 -9999 -9999 -9999 -9999 -9999 -9999 -9999 -9999 -9999 -9999 -9999 -9999 -9999 -9999 -9999 -9999 -9999 -9999 -9999 -9999 -9999 -9999 -9999 -9999 -9999 -9999 -9999 -9999 -9999 -9999
-9999 -9999 -9999 -9999 -9999 -9999 -9999 -9999 -9999 -9999 -9999 -9999 -9999 -9999 -9999 -9999 -9999 -9999 -9999 -9999 -9999 -9999 -9999 -9999 -9999 -9999 -9999 -9999 -9999 -9999 -9999 -9999 -9999 -9999 -9999 -9999 -9999 -9999 -9999 -9999 -9999 -9999 -9999 -9999 -9999 -9999 -9999 -9999 -9999 -9999 -9999 -9999 -9999 -9999 -9999 -9999 -9999 -9999 -9999 -9999 -9999 -9999 -9999 -9999 -9999 -9999 -9999 -9999 1 1 1 1 1 1 1 1 1 2 6 12 19 26 32 38 45 53 61 68 75 84 94 105 118 132 142 147 150 152 154 156 159 161 163 165 167 170 172 174 176 178 180 183 186 188 191 193 196 198 200 203 205 206 208 210 212 214 216 217 218 218 218 218 218 217 216 213 210 207 205 203 202 201 200 199 197 195 195 194 194 194 193 193 192 191 190 189 189 187 186 185 184 184 183 182 182 182 182 182 181 181 181 181 180 180 180 181 181 182 182 182 181 181 182 183 184 185 186 187 188 189 190 191 192 192 191 191 190 190 190 191 193 195 198 203 210 215 218 221 223 225 226 228 226 223 218 213 211 211 211 209 208 206 204 202 201 200 199 197 195 194 192 191 189 187 186 184 183 182 180 179 179 178 178 178 177 177 176 175 174 173 172 172 172 172 173 174 174 175 175 175 176 176 177 177 178 179 180 181 182 182 182 182 183 183 184 184 185 185 186 186 187 187 188 189 189 190 190 190 190 190 188 184 179 173 168 163 158 153 150 150 151 155 159 164 170 175 181 187 194 200 206 210 210 209 207 208 211 218 227 237 249 261 273 283 292 300 306 311 315 317 318 318 317 318 318 319 320 320 320 321 321 321 320 320 319 319 319 320 320 319 319 318 318 318 318 317 317 317 317 317 317 317 317 317 317 318 318 319 319 318 317 316 317 318 320 320 319 317 316 316 317 319 320 321 321 321 321 321 322 322 323 324 324 324 325 326 326 327 327 328 329 330 330 331 332 333 334 335 336 337 338 339 341 342 344 345 347 349 352 353 355 357 359 363 367 370 372 373 373 373 374 374 375 375 375 374 374 374 374 374 374 374 373 373 373 373 373 373 374 374 374 374 374 374 374 374 374 375 375 375 376 377 378 380 382 383 382 380 377 372 368 363 359 354 350 345 341 335 330 324 319 314 308 303 297 292 286 281 276 270 264 258 253 248 243 237 231 224 217 210 204 198 192 186 180 176 172 166 161 156 149 143 137 132 125 118 111 105 99 93 88 83 76 70 63 57 50 43 35 27 17 9 3 0 0 0 0 1 -9999 -9999 -9999 -9999 -9999 -9999 -9999 -9999 -9999 -9999 -9999 -9999 -9999 -9999 -9999 -9999 -9999 -9999 -9999 -9999 -9999 -9999 -9999 -9999 -9999 -9999 -9999 -9999 -9999 -9999 -9999 -9999 -9999 -9999 -9999 -9999 -9999 -9999 -9999 -9999 -9999 -9999 -9999 -9999 -9999 -9999 -9999 -9999 -9999 -9999 -9999 -9999 -9999 -9999 -9999 -9999 -9999 -9999 -9999 -9999 -9999 -9999 -9999 -9999 -9999 -9999 -9999 -9999 -9999 -9999 -9999 -9999 -9999 -9999 -9999 -9999 -9999 -9999 -9999
-9999 -9999 -9999 -9999 -9999 -9999 -9999 -9999 -9999 -9999 -9999 -9999 -9999 -9999 -9999 -9999 -9999 -9999 -9999 -9999 -9999 -9999 -9999 -9999 -9999 -9999 -9999 -9999 -9999 -9999 -9999 -9999 -9999 -9999 -9999 -9999 -9999 -9999 -9999 -9999 -9999 -9999 -9999 -9999 -9999 -9999 -9999 -9999 -9999 -9999 -9999 -9999 -9999 -9999 -9999 -9999 -9999 -9999 -9999 -9999 -9999 -9999 -9999 -9999 -9999 -9999 -9999 -9999 -9999 -9999 1 1 1 1 1 1 1 1 3 7 13 20 28 35 42 49 56 64 71 78 86 94 107 124 137 145 147 150 152 154 156 159 161 163 165 168 171 173 175 177 179 182 185 188 191 193 196 198 201 203 205 207 209 211 213 215 218 219 221 221 222 222 222 222 220 218 215 212 210 209 207 206 205 204 202 201 200 199 199 198 198 197 196 196 195 194 193 192 191 190 189 188 187 187 186 186 186 186 186 186 185 185 185 185 185 185 186 186 187 186 186 186 187 188 189 190 191 192 193 194 194 195 196 196 196 195 194 195 197 200 203 207 209 212 218 223 227 230 233 235 236 236 234 230 225 220 217 217 216 215 213 212 210 207 205 203 202 201 199 198 196 194 193 191 189 188 187 185 184 183 182 181 181 181 180 180 179 177 176 176 175 175 174 174 175 176 176 177 177 178 178 179 179 180 180 181 182 183 184 184 184 185 185 186 186 187 187 187 188 188 189 189 190 191 191 192 192 192 193 192 190 187 182 175 169 164 159 154 151 152 155 159 164 168 173 177 183 190 197 204 211 216 219 220 219 220 223 229 237 246 257 267 278 288 297 302 307 311 313 314 314 314 314 314 315 316 317 319 319 320 320 321 321 320 320 320 320 321 321 320 320 319 319 319 318 317 317 317 318 318 318 317 317 317 317 318 319 320 319 319 318 317 317 317 318 319 320 319 318 318 319 320 321 321 321 321 321 322 322 323 323 324 324 325 325 326 326 327 328 328 329 330 330 331 332 333 334 336 337 338 339 340 341 343 344 346 348 350 352 354 356 358 361 365 368 371 372 373 373 373 374 374 375 374 374 374 374 374 374 374 374 373 373 373 373 373 373 374 374 374 374 374 374 374 374 374 374 375 375 375 376 376 377 378 380 382 382 382 378 374 369 365 360 355 351 346 341 336 331 326 320 315 309 304 298 293 287 281 276 270 265 259 255 250 244 238 231 225 218 210 204 199 194 190 186 181 176 170 165 159 152 144 137 129 122 115 109 105 100 96 92 87 81 74 66 59 52 45 37 28 19 10 3 0 0 0 0 1 -9999 -9999 -9999 -9999 -9999 -9999 -9999 -9999 -9999 -9999 -9999 -9999 -9999 -9999 -9999 -9999 -9999 -9999 -9999 -9999 -9999 -9999 -9999 -9999 -9999 -9999 -9999 -9999 -9999 -9999 -9999 -9999 -9999 -9999 -9999 -9999 -9999 -9999 -9999 -9999 -9999 -9999 -9999 -9999 -9999 -9999 -9999 -9999 -9999 -9999 -9999 -9999 -9999 -9999 -9999 -9999 -9999 -9999 -9999 -9999 -9999 -9999 -9999 -9999 -9999 -9999 -9999 -9999 -9999 -9999 -9999 -9999 -9999 -9999 -9999 -9999 -9999 -9999 -9999
-9999 -9999 -9999 -9999 -9999 -9999 -9999 -9999 -9999 -9999 -9999 -9999 -9999 -9999 -9999 -9999 -9999 -9999 -9999 -9999 -9999 -9999 -9999 -9999 -9999 -9999 -9999 -9999 -9999 -9999 -9999 -9999 -9999 -9999 -9999 -9999 -9999 -9999 -9999 -9999 -9999 -9999 -9999 -9999 -9999 -9999 -9999 -9999 -9999 -9999 -9999 -9999 -9999 -9999 -9999 -9999 -9999 -9999 -9999 -9999 -9999 -9999 -9999 -9999 -9999 -9999 -9999 -9999 -9999 -9999 1 1 1 1 1 1 1 1 1 3 8 14 22 29 38 46 53 60 66 74 80 87 99 117 133 143 145 147 150 152 154 157 159 162 164 167 170 172 175 177 179 182 185 188 190 193 196 198 201 203 205 208 210 212 214 216 218 221 223 224 225 226 226 226 225 222 220 217 215 214 213 211 210 209 207 206 205 204 203 203 202 202 201 200 199 199 198 197 196 194 193 192 191 191 190 190 190 190 190 190 190 189 189 189 189 189 190 190 191 191 191 191 191 192 194 195 196 197 198 198 199 199 200 200 200 200 199 201 204 208 212 217 221 223 226 229 234 239 242 245 245 244 241 236 231 226 224 223 222 220 219 217 215 212 209 207 205 204 203 201 200 198 196 195 193 192 190 189 187 186 185 185 184 183 183 182 181 180 179 178 178 177 177 177 178 178 179 180 180 181 181 181 181 182 183 183 184 185 186 186 186 187 188 188 189 189 190 190 190 190 191 192 192 193 193 194 194 195 196 196 194 190 184 177 170 164 159 155 153 154 158 163 168 173 178 183 188 195 202 209 216 221 226 228 229 231 235 240 247 256 265 273 282 289 296 300 304 306 308 309 310 311 311 311 312 314 315 317 318 319 320 320 321 321 321 321 321 322 322 321 320 320 319 319 318 318 318 318 318 318 318 318 318 318 318 318 318 319 319 319 319 318 317 317 318 318 319 319 320 320 320 321 321 321 322 322 322 322 322 323 323 324 324 325 325 326 326 327 328 328 329 330 330 331 332 333 334 336 337 338 339 340 342 343 345 346 348 350 352 355 357 359 363 366 369 371 373 373 373 373 374 374 374 374 374 374 374 374 374 374 374 373 373 373 373 373 373 373 373 373 373 373 374 374 374 374 374 374 375 375 375 376 376 377 379 380 382 382 379 375 371 366 361 356 351 347 342 337 332 326 321 316 310 305 299 294 288 282 277 271 265 260 256 251 245 239 232 225 218 212 206 203 198 195 191 185 179 173 167 161 153 145 136 127 119 115 110 107 104 99 95 89 82 76 68 61 53 46 38 30 20 9 2 0 0 0 0 1 -9999 -9999 -9999 -9999 -9999 -9999 -9999 -9999 -9999 -9999 -9999 -9999 -9999 -9999 -9999 -9999 -9999 -9999 -9999 -9999 -9999 -9999 -9999 -9999 -9999 -9999 -9999 -9999 -9999 -9999 -9999 -9999 -9999 -9999 -9999 -9999 -9999 -9999 -9999 -9999 -9999 -9999 -9999 -9999 -9999 -9999 -9999 -9999 -9999 -9999 -9999 -9999 -9999 -9999 -9999 -9999 -9999 -9999 -9999 -9999 -9999 -9999 -9999 -9999 -9999 -9999 -9999 -9999 -9999 -9999 -9999 -9999 -9999 -9999 -9999 -9999 -9999 -9999 -9999
-9999 -9999 -9999 -9999 -9999 -9999 -9999 -9999 -9999 -9999 -9999 -9999 -9999 -9999 -9999 -9999 -9999 -9999 -9999 -9999 -9999 -9999 -9999 -9999 -9999 -9999 -9999 -9999 -9999 -9999 -9999 -9999 -9999 -9999 -9999 -9999 -9999 -9999 -9999 -9999 -9999 -9999 -9999 -9999 -9999 -9999 -9999 -9999 -9999 -9999 -9999 -9999 -9999 -9999 -9999 -9999 -9999 -9999 -9999 -9999 -9999 -9999 -9999 -9999 -9999 -9999 -9999 -9999 -9999 -9999 -9999 1 1 1 1 1 1 1 1 1 4 8 15 24 33 41 49 56 62 69 74 81 93 111 128 139 143 145 148 150 153 156 159 161 163 166 169 172 175 177 179 182 185 188 190 193 196 198 201 203 206 208 210 212 214 217 219 222 225 226 228 229 230 230 229 227 225 223 220 219 218 217 215 214 212 211 209 208 208 207 207 206 205 205 204 204 203 202 200 199 198 197 196 195 195 195 195 195 195 194 194 194 194 193 193 194 194 194 195 195 195 196 196 197 198 199 200 201 202 202 203 203 203 204 205 205 206 208 210 214 219 225 230 232 235 239 244 248 251 253 253 251 247 242 237 232 230 229 228 226 224 222 220 217 214 212 209 208 206 205 203 202 200 199 197 195 194 192 191 190 189 188 187 187 186 185 184 183 182 181 180 180 179 180 181 181 182 182 183 183 183 183 183 184 184 185 186 187 188 188 189 190 190 191 191 192 192 193 193 193 193 194 194 195 195 196 197 197 198 200 199 194 188 180 172 164 159 155 153 156 161 167 171 177 184 190 195 201 208 214 221 226 232 236 238 241 245 251 257 264 270 276 282 286 290 294 297 301 303 305 306 307 308 308 309 311 313 315 317 319 319 319 320 320 320 321 321 322 322 321 320 320 319 319 319 318 318 319 319 319 319 318 318 318 318 318 318 318 319 320 319 319 318 318 318 318 318 319 320 321 321 321 321 321 322 323 323 323 323 323 324 324 325 325 326 326 327 328 328 329 329 330 331 332 333 334 334 335 337 338 339 341 342 343 345 347 348 350 353 356 358 361 364 368 370 372 372 373 373 374 374 374 374 374 374 375 374 374 374 373 373 373 373 373 373 373 373 373 373 373 373 373 373 373 374 374 374 374 375 375 375 376 376 377 378 380 381 382 380 376 372 367 362 357 352 347 343 338 332 327 322 317 311 306 300 295 289 283 277 272 266 261 256 251 245 239 233 227 220 215 211 208 204 200 195 188 181 175 168 162 154 144 134 126 120 116 113 110 106 101 95 89 83 77 70 64 56 49 42 33 21 9 1 0 0 0 0 1 -9999 -9999 -9999 -9999 -9999 -9999 -9999 -9999 -9999 -9999 -9999 -9999 -9999 -9999 -9999 -9999 -9999 -9999 -9999 -9999 -9999 -9999 -9999 -9999 -9999 -9999 -9999 -9999 -9999 -9999 -9999 -9999 -9999 -9999 -9999 -9999 -9999 -9999 -9999 -9999 -9999 -9999 -9999 -9999 -9999 -9999 -9999 -9999 -9999 -9999 -9999 -9999 -9999 -9999 -9999 -9999 -9999 -9999 -9999 -9999 -9999 -9999 -9999 -9999 -9999 -9999 -9999 -9999 -9999 -9999 -9999 -9999 -9999 -9999 -9999 -9999 -9999 -9999 -9999
-9999 -9999 -9999 -9999 -9999 -9999 -9999 -9999 -9999 -9999 -9999 -9999 -9999 -9999 -9999 -9999 -9999 -9999 -9999 -9999 -9999 -9999 -9999 -9999 -9999 -9999 -9999 -9999 -9999 -9999 -9999 -9999 -9999 -9999 -9999 -9999 -9999 -9999 -9999 -9999 -9999 -9999 -9999 -9999 -9999 -9999 -9999 -9999 -9999 -9999 -9999 -9999 -9999 -9999 -9999 -9999 -9999 -9999 -9999 -9999 -9999 -9999 -9999 -9999 -9999 -9999 -9999 -9999 -9999 -9999 -9999 1 1 1 1 1 1 1 1 1 1 4 10 19 27 36 44 51 58 63 68 74 87 105 123 135 141 144 147 150 153 155 158 161 163 166 169 171 174 177 179 182 185 187 190 193 196 199 201 204 206 208 210 212 215 217 220 223 225 228 230 231 233 233 233 232 230 228 226 224 223 222 221 219 217 216 214 213 212 212 211 210 210 209 209 209 208 206 205 204 203 202 201 200 200 199 199 199 199 199 199 199 198 198 198 198 199 199 199 199 200 200 201 202 203 203 204 205 205 205 206 207 208 208 209 211 212 215 218 221 224 231 236 240 245 251 255 257 260 262 261 258 253 247 242 239 237 236 234 232 230 228 225 222 219 217 214 212 210 209 207 205 204 202 201 199 197 196 195 194 193 192 190 189 188 187 186 185 184 183 183 182 182 183 183 184 184 185 186 186 186 186 186 186 186 187 188 189 189 191 192 192 193 194 194 195 195 196 196 196 196 196 197 197 198 199 199 200 202 203 203 199 192 183 174 165 158 154 155 159 165 170 175 182 189 196 203 208 214 220 226 232 238 243 246 250 255 260 265 268 272 276 279 282 284 288 292 296 299 300 302 303 304 305 307 309 311 314 316 318 319 319 319 319 319 320 321 322 322 321 321 320 320 319 319 319 319 319 319 319 319 319 319 319 319 318 318 318 319 320 320 320 320 318 318 318 318 318 320 321 322 322 321 321 322 323 324 324 324 324 324 325 325 325 326 327 327 328 329 329 330 331 331 332 333 334 334 335 337 338 340 341 342 344 346 347 349 351 354 357 360 363 366 369 371 372 372 373 373 374 374 374 374 374 374 374 374 374 373 373 373 373 373 373 373 373 373 373 373 373 373 373 373 373 374 374 374 374 374 375 375 376 376 377 378 379 381 382 380 377 373 368 363 358 353 348 343 338 333 328 323 318 312 307 301 295 289 283 278 273 267 262 257 251 246 241 235 229 224 220 217 213 208 203 197 189 182 175 169 162 151 140 132 127 123 119 116 112 108 102 96 90 86 81 75 68 62 54 46 36 22 9 2 0 0 0 1 1 -9999 -9999 -9999 -9999 -9999 -9999 -9999 -9999 -9999 -9999 -9999 -9999 -9999 -9999 -9999 -9999 -9999 -9999 -9999 -9999 -9999 -9999 -9999 -9999 -9999 -9999 -9999 -9999 -9999 -9999 -9999 -9999 -9999 -9999 -9999 -9999 -9999 -9999 -9999 -9999 -9999 -9999 -9999 -9999 -9999 -9999 -9999 -9999 -9999 -9999 -9999 -9999 -9999 -9999 -9999 -9999 -9999 -9999 -9999 -9999 -9999 -9999 -9999 -9999 -9999 -9999 -9999 -9999 -9999 -9999 -9999 -9999 -9999 -9999 -9999 -9999 -9999 -9999 -9999
-9999 -9999 -9999 -9999 -9999 -9999 -9999 -9999 -9999 -9999 -9999 -9999 -9999 -9999 -9999 -9999 -9999 -9999 -9999 -9999 -9999 -9999 -9999 -9999 -9999 -9999 -9999 -9999 -9999 -9999 -9999 -9999 -9999 -9999 -9999 -9999 -9999 -9999 -9999 -9999 -9999 -9999 -9999 -9999 -9999 -9999 -9999 -9999 -9999 -9999 -9999 -9999 -9999 -9999 -9999 -9999 -9999 -9999 -9999 -9999 -9999 -9999 -9999 -9999 -9999 -9999 -9999 -9999 -9999 -9999 -9999 -9999 1 1 1 1 1 1 1 1 1 2 5 12 21 30 39 47 52 58 62 69 82 100 118 132 139 143 147 150 153 155 158 160 163 165 168 171 173 176 178 181 184 187 189 192 195 198 201 204 206 208 211 213 215 218 220 223 226 228 231 233 235 236 236 235 234 233 231 229 228 227 226 224 223 221 219 218 217 216 216 215 214 214 214 214 213 211 210 209 208 207 206 205 205 204 204 204 204 204 203 203 203 203 203 203 203 203 203 204 204 205 206 207 208 208 208 208 209 209 210 212 213 212 213 216 219 223 226 228 230 235 242 247 254 260 264 266 268 270 268 263 257 252 248 245 244 242 240 238 236 233 230 227 224 221 218 216 214 212 211 209 207 206 204 202 201 200 198 197 196 195 193 192 191 190 189 188 187 186 185 185 185 185 186 186 187 188 188 189 189 189 189 188 188 189 190 190 191 192 194 195 196 196 197 198 198 199 199 198 198 199 200 200 201 201 201 202 205 206 205 201 194 185 174 164 157 156 159 164 169 174 180 187 194 203 210 215 219 225 231 237 243 249 254 258 263 267 270 271 273 275 276 278 280 283 287 291 294 296 297 299 300 302 305 307 310 312 315 317 318 318 318 318 318 319 321 322 322 322 321 321 321 320 320 320 320 320 320 320 320 320 320 320 319 319 319 319 319 320 320 321 320 319 318 318 318 319 320 322 323 323 322 321 322 323 324 324 324 324 324 325 325 326 326 327 328 329 329 330 330 331 332 333 333 334 335 336 337 339 339 341 343 344 346 348 349 351 354 357 361 365 369 370 371 372 373 373 374 374 375 374 374 374 374 374 374 373 373 373 373 373 373 373 373 373 373 373 373 373 373 373 373 373 374 374 374 374 374 375 375 376 376 377 378 379 380 381 381 378 375 370 365 360 355 350 345 340 335 329 324 319 313 308 302 297 291 285 280 274 269 264 258 253 249 243 238 233 228 223 219 215 208 202 195 188 181 175 167 157 146 138 134 130 126 122 118 114 109 104 99 94 90 85 79 73 66 58 49 38 23 10 2 0 0 0 1 1 1 -9999 -9999 -9999 -9999 -9999 -9999 -9999 -9999 -9999 -9999 -9999 -9999 -9999 -9999 -9999 -9999 -9999 -9999 -9999 -9999 -9999 -9999 -9999 -9999 -9999 -9999 -9999 -9999 -9999 -9999 -9999 -9999 -9999 -9999 -9999 -9999 -9999 -9999 -9999 -9999 -9999 -9999 -9999 -9999 -9999 -9999 -9999 -9999 -9999 -9999 -9999 -9999 -9999 -9999 -9999 -9999 -9999 -9999 -9999 -9999 -9999 -9999 -9999 -9999 -9999 -9999 -9999 -9999 -9999 -9999 -9999 -9999 -9999 -9999 -9999 -9999 -9999 -9999
-9999 -9999 -9999 -9999 -9999 -9999 -9999 -9999 -9999 -9999 -9999 -9999 -9999 -9999 -9999 -9999 -9999 -9999 -9999 -9999 -9999 -9999 -9999 -9999 -9999 -9999 -9999 -9999 -9999 -9999 -9999 -9999 -9999 -9999 -9999 -9999 -9999 -9999 -9999 -9999 -9999 -9999 -9999 -9999 -9999 -9999 -9999 -9999 -9999 -9999 -9999 -9999 -9999 -9999 -9999 -9999 -9999 -9999 -9999 -9999 -9999 -9999 -9999 -9999 -9999 -9999 -9999 -9999 -9999 -9999 -9999 -9999 -9999 1 1 1 1 1 1 1 1 1 2 5 14 24 34 41 47 52 56 63 77 96 114 128 138 143 146 150 152 154 157 160 162 165 167 170 173 176 178 181 184 186 189 192 195 198 201 204 206 208 211 213 216 218 221 223 226 229 232 235 236 238 238 238 238 237 235 234 232 231 230 229 227 226 225 223 221 221 220 219 219 219 220 219 218 216 215 214 213 212 211 210 209 209 208 208 208 208 208 207 208 208 208 208 208 208 208 208 209 210 211 212 213 213 213 213 213 213 214 216 216 216 217 220 225 229 233 236 237 240 246 253 259 266 271 274 276 277 274 269 262 257 254 251 250 248 247 244 241 238 235 232 228 225 223 220 218 216 214 212 211 209 207 206 204 203 202 200 199 198 196 195 194 193 191 190 189 188 188 187 187 188 188 189 190 190 191 191 192 192 191 191 190 191 192 192 193 194 195 197 198 199 200 200 201 201 201 201 201 201 202 203 203 202 203 204 206 207 205 201 194 185 174 163 158 160 165 169 174 179 185 192 200 208 215 221 226 231 237 243 250 256 261 266 270 273 275 276 275 275 275 275 277 279 282 286 289 291 292 293 296 299 302 306 309 312 314 316 317 317 316 316 317 319 320 321 321 321 321 322 321 321 321 321 321 321 320 320 320 320 320 320 320 320 321 320 320 320 320 321 321 320 319 319 319 320 321 322 324 323 323 322 322 323 324 324 324 324 324 325 325 326 327 328 329 329 330 330 331 332 332 333 334 335 335 336 337 339 339 341 343 345 346 348 349 351 354 357 361 365 369 371 372 373 373 373 373 374 374 374 374 374 374 374 373 373 373 373 373 373 373 373 373 373 373 373 373 373 373 373 373 373 374 374 374 374 374 375 375 376 376 377 378 379 380 381 381 380 377 372 367 362 357 352 346 341 336 331 325 320 314 309 303 297 292 286 281 276 270 265 260 254 250 244 238 233 228 222 218 212 205 199 192 186 179 172 162 151 145 142 138 135 130 125 121 116 112 106 102 98 94 88 83 76 68 61 52 39 24 10 2 0 0 0 1 1 1 1 -9999 -9999 -9999 -9999 -9999 -9999 -9999 -9999 -9999 -9999 -9999 -9999 -9999 -9999 -9999 -9999 -9999 -9999 -9999 -9999 -9999 -9999 -9999 -9999 -9999 -9999 -9999 -9999 -9999 -9999 -9999 -9999 -9999 -9999 -9999 -9999 -9999 -9999 -9999 -9999 -9999 -9999 -9999 -9999 -9999 -9999 -9999 -9999 -9999 -9999 -9999 -9999 -9999 -9999 -9999 -9999 -9999 -9999 -9999 -9999 -9999 -9999 -9999 -9999 -9999 -9999 -9999 -9999 -9999 -9999 -9999 -9999 -9999 -9999 -9999 -9999 -9999
-9999 -9999 -9999 -9999 -9999 -9999 -9999 -9999 -9999 -9999 -9999 -9999 -9999 -9999 -9999 -9999 -9999 -9999 -9999 -9999 -9999 -9999 -9999 -9999 -9999 -9999 -9999 -9999 -9999 -9999 -9999 -9999 -9999 -9999 -9999 -9999 -9999 -9999 -9999 -9999 -9999 -9999 -9999 -9999 -9999 -9999 -9999 -9999 -9999 -9999 -9999 -9999 -9999 -9999 -9999 -9999 -9999 -9999 -9999 -9999 -9999 -9999 -9999 -9999 -9999 -9999 -9999 -9999 -9999 -9999 -9999 -9999 -9999 -9999 1 1 1 1 1 1 1 1 1 2 8 18 27 34 41 46 50 59 75 93 110 125 136 142 145 148 150 153 156 159 161 164 167 170 173 176 179 181 184 187 190 193 196 198 201 204 206 209 211 214 216 218 221 224 227 230 233 235 238 239 241 241 242 241 240 238 237 236 234 233 232 231 230 228 226 225 224 224 224 224 225 224 223 221 220 219 218 217 216 215 214 214 213 213 212 212 212 211 212 212 212 213 212 212 212 212 213 215 216 217 218 218 218 217 217 218 218 220 220 219 220 224 230 234 240 243 244 246 251 258 264 271 276 279 281 281 280 275 269 264 260 257 256 254 252 249 246 243 239 236 233 230 227 224 222 220 218 216 214 213 211 209 208 206 205 204 202 201 199 198 196 195 194 193 192 191 190 190 190 190 191 191 192 193 193 194 194 194 194 193 193 193 193 194 194 195 197 198 200 202 202 203 204 204 204 204 204 204 205 205 205 205 206 206 206 206 204 200 193 184 173 163 160 164 170 174 179 185 192 198 205 212 218 225 232 239 245 251 257 264 269 272 276 279 281 281 279 277 276 276 277 278 280 282 284 286 288 291 294 297 301 305 309 312 314 315 316 315 314 315 317 318 319 319 319 320 320 321 322 322 322 321 321 321 321 321 321 321 321 321 321 321 322 321 321 321 321 321 322 321 319 319 321 321 321 323 324 324 323 322 322 323 324 325 325 325 325 325 326 327 327 328 329 329 330 330 331 332 333 333 334 335 336 337 337 339 339 341 343 345 347 348 349 351 353 357 361 365 368 370 371 372 372 372 373 374 374 374 374 374 374 374 373 373 373 373 373 373 373 373 373 373 373 373 373 373 373 373 373 373 374 374 374 374 374 375 375 376 376 377 378 379 380 381 381 380 378 374 369 364 359 354 348 343 338 332 326 321 316 310 304 298 293 287 282 277 271 266 261 255 250 244 238 232 226 221 215 209 202 196 190 184 176 167 157 151 149 146 142 138 133 128 123 118 114 109 105 101 96 91 85 78 70 63 54 41 26 12 2 0 0 0 0 1 1 1 1 -9999 -9999 -9999 -9999 -9999 -9999 -9999 -9999 -9999 -9999 -9999 -9999 -9999 -9999 -9999 -9999 -9999 -9999 -9999 -9999 -9999 -9999 -9999 -9999 -9999 -9999 -9999 -9999 -9999 -9999 -9999 -9999 -9999 -9999 -9999 -9999 -9999 -9999 -9999 -9999 -9999 -9999 -9999 -9999 -9999 -9999 -9999 -9999 -9999 -9999 -9999 -9999 -9999 -9999 -9999 -9999 -9999 -9999 -9999 -9999 -9999 -9999 -9999 -9999 -9999 -9999 -9999 -9999 -9999 -9999 -9999 -9999 -9999 -9999 -9999 -9999
-9999 -9999 -9999 -9999 -9999 -9999 -9999 -9999 -9999 -9999 -9999 -9999 -9999 -9999 -9999 -9999 -9999 -9999 -9999 -9999 -9999 -9999 -9999 -9999 -9999 -9999 -9999 -9999 -9999 -9999 -9999 -9999 -9999 -9999 -9999 -9999 -9999 -9999 -9999 -9999 -9999 -9999 -9999 -9999 -9999 -9999 -9999 -9999 -9999 -9999 -9999 -9999 -9999 -9999 -9999 -9999 -9999 -9999 -9999 -9999 -9999 -9999 -9999 -9999 -9999 -9999 -9999 -9999 -9999 -9999 -9999 -9999 -9999 -9999 -9999 1 1 1 1 1 1 1 1 1 5 13 21 28 34 40 45 57 74 91 107 122 134 141 144 147 150 153 156 159 162 165 167 170 173 175 178 181 184 187 190 193 196 198 201 204 207 209 212 214 216 219 221 224 227 230 233 236 238 241 243 245 246 246 244 244 242 240 239 238 237 235 234 233 232 230 229 229 229 229 229 229 228 227 225 224 223 222 221 221 220 220 219 218 217 216 216 216 216 216 216 217 217 217 217 217 219 221 222 223 224 224 223 223 222 223 224 225 225 225 226 230 235 240 246 251 251 252 257 263 270 276 281 284 286 285 284 282 277 272 267 263 261 259 256 254 251 248 244 240 237 234 231 228 226 224 222 220 218 216 214 213 211 209 208 207 205 204 202 201 199 198 197 196 194 194 193 193 193 193 193 194 195 195 196 196 197 197 196 196 195 195 195 195 196 197 198 199 201 203 205 206 207 207 208 208 207 207 207 206 207 208 208 207 207 206 203 198 192 183 173 165 164 170 176 181 188 196 202 208 214 219 225 231 239 247 253 260 265 271 275 278 282 285 287 286 284 282 281 280 280 281 281 282 284 285 288 292 295 300 303 306 310 313 314 314 314 313 312 314 316 318 318 318 318 319 320 321 322 322 322 322 322 322 322 322 322 322 322 322 322 322 322 322 321 321 321 322 322 321 320 319 320 321 322 323 324 324 324 323 323 323 323 324 325 325 325 325 326 328 328 329 329 330 330 331 331 332 333 334 334 335 336 337 338 339 340 341 343 345 347 348 349 351 354 356 360 363 367 369 370 371 371 372 373 374 374 374 374 374 374 374 373 373 373 373 373 373 373 373 373 373 373 373 373 373 373 373 373 373 374 374 374 374 374 375 375 376 376 377 378 379 380 382 382 381 379 375 371 366 361 356 350 345 339 334 328 323 318 312 306 300 295 289 284 278 272 267 261 256 251 245 239 233 227 221 215 208 202 196 190 183 174 163 158 156 153 149 145 140 135 130 125 121 117 112 108 102 97 93 87 80 73 66 56 43 28 13 4 1 0 0 0 0 1 1 1 -9999 -9999 -9999 -9999 -9999 -9999 -9999 -9999 -9999 -9999 -9999 -9999 -9999 -9999 -9999 -9999 -9999 -9999 -9999 -9999 -9999 -9999 -9999 -9999 -9999 -9999 -9999 -9999 -9999 -9999 -9999 -9999 -9999 -9999 -9999 -9999 -9999 -9999 -9999 -9999 -9999 -9999 -9999 -9999 -9999 -9999 -9999 -9999 -9999 -9999 -9999 -9999 -9999 -9999 -9999 -9999 -9999 -9999 -9999 -9999 -9999 -9999 -9999 -9999 -9999 -9999 -9999 -9999 -9999 -9999 -9999 -9999 -9999 -9999 -9999 -9999
-9999 -9999 -9999 -9999 -9999 -9999 -9999 -9999 -9999 -9999 -9999 -9999 -9999 -9999 -9999 -9999 -9999 -9999 -9999 -9999 -9999 -9999 -9999 -9999 -9999 -9999 -9999 -9999 -9999 -9999 -9999 -9999 -9999 -9999 -9999 -9999 -9999 -9999 -9999 -9999 -9999 -9999 -9999 -9999 -9999 -9999 -9999 -9999 -9999 -9999 -9999 -9999 -9999 -9999 -9999 -9999 -9999 -9999 -9999 -9999 -9999 -9999 -9999 -9999 -9999 -9999 -9999 -9999 -9999 -9999 -9999 -9999 -9999 -9999 -9999 1 1 1 1 1 1 1 1 1 3 9 16 22 28 33 40 53 72 89 104 119 133 140 144 147 150 153 156 158 161 164 167 170 173 175 178 181 184 187 190 193 196 198 201 204 207 210 212 214 217 219 221 224 227 230 233 236 239 242 245 247 249 250 250 249 248 246 245 244 243 241 239 238 237 235 234 234 234 234 234 234 233 233 231 230 229 228 227 227 226 225 225 224 223 222 221 221 221 221 222 222 222 222 222 223 225 227 229 230 231 230 229 229 229 229 230 232 232 233 235 238 243 248 254 258 260 261 264 270 276 281 285 288 291 290 289 287 284 278 273 270 266 263 260 258 255 252 248 244 241 238 235 232 230 228 225 223 221 219 217 216 214 213 211 210 208 206 205 203 202 201 199 198 197 196 196 196 196 195 196 196 197 198 198 199 199 199 199 198 198 197 197 198 198 198 199 200 202 204 206 209 210 211 211 211 211 210 208 209 210 211 210 209 208 207 204 199 192 186 179 174 175 181 188 194 200 207 213 219 224 229 235 241 248 255 261 266 271 276 280 284 287 290 292 291 289 288 287 286 285 285 285 286 288 289 291 294 298 302 305 308 310 312 312 312 312 311 312 313 316 317 317 317 317 318 320 321 322 322 323 323 322 322 323 322 322 322 323 323 323 323 323 323 322 321 322 323 323 322 320 320 320 321 323 324 324 325 324 324 323 323 323 324 325 325 325 326 326 328 329 329 329 330 330 331 332 332 333 334 335 335 336 337 338 340 341 342 343 345 347 348 350 352 355 357 360 363 366 368 370 371 371 372 373 374 374 374 374 374 374 374 373 373 373 373 373 373 373 373 373 373 373 373 373 373 373 373 373 373 374 374 374 374 375 375 375 376 376 377 377 379 380 381 382 381 380 377 373 368 363 358 353 347 341 335 330 325 319 314 308 302 297 291 286 280 274 268 263 258 252 247 240 235 229 223 217 211 205 198 192 184 174 166 163 160 155 152 148 143 138 133 128 124 120 115 110 105 100 95 90 83 77 69 59 47 33 18 8 3 0 0 0 0 1 1 1 -9999 -9999 -9999 -9999 -9999 -9999 -9999 -9999 -9999 -9999 -9999 -9999 -9999 -9999 -9999 -9999 -9999 -9999 -9999 -9999 -9999 -9999 -9999 -9999 -9999 -9999 -9999 -9999 -9999 -9999 -9999 -9999 -9999 -9999 -9999 -9999 -9999 -9999 -9999 -9999 -9999 -9999 -9999 -9999 -9999 -9999 -9999 -9999 -9999 -9999 -9999 -9999 -9999 -9999 -9999 -9999 -9999 -9999 -9999 -9999 -9999 -9999 -9999 -9999 -9999 -9999 -9999 -9999 -9999 -9999 -9999 -9999 -9999 -9999 -9999 -9999
-9999 -9999 -9999 -9999 -9999 -9999 -9999 -9999 -9999 -9999 -9999 -9999 -9999 -9999 -9999 -9999 -9999 -9999 -9999 -9999 -9999 -9999 -9999 -9999 -9999 -9999 -9999 -9999 -9999 -9999 -9999 -9999 -9999 -9999 -9999 -9999 -9999 -9999 -9999 -9999 -9999 -9999 -9999 -9999 -9999 -9999 -9999 -9999 -9999 -9999 -9999 -9999 -9999 -9999 -9999 -9999 -9999 -9999 -9999 -9999 -9999 -9999 -9999 -9999 -9999 -9999 -9999 -9999 -9999 -9999 -9999 -9999 -9999 -9999 -9999 -9999 1 1 1 1 1 1 1 1 2 6 11 17 22 26 32 46 67 85 99 113 127 135 143 147 149 152 155 158 161 164 166 169 172 175 178 181 184 187 191 193 195 198 202 204 207 210 212 214 217 219 222 225 228 231 234 237 240 243 245 248 251 253 254 254 254 253 252 251 250 248 246 244 242 240 240 240 240 239 239 239 239 239 238 237 235 234 233 233 232 231 231 230 229 228 227 227 228 228 228 228 228 229 230 231 234 236 237 238 239 238 237 236 236 236 237 239 240 242 244 248 253 258 263 266 268 270 272 277 281 285 289 293 296 296 295 293 289 284 279 275 271 268 264 262 259 255 252 249 246 242 239 236 234 232 228 226 224 222 221 219 217 216 214 213 211 209 207 206 205 204 202 201 200 199 199 198 198 198 198 199 200 200 201 201 202 202 201 201 200 200 199 200 200 201 201 202 203 204 206 210 213 214 214 214 213 212 212 212 213 214 214 212 210 210 208 204 199 195 192 190 192 197 202 208 213 219 225 230 236 241 247 253 258 263 267 271 275 280 284 288 291 294 296 296 295 294 293 292 290 289 289 291 293 295 295 296 299 303 306 307 307 308 308 309 309 310 311 312 315 317 317 317 317 318 319 321 322 323 323 323 323 323 323 323 323 323 324 324 324 325 325 324 324 323 322 323 323 323 321 320 320 322 324 325 325 325 325 325 324 324 324 325 325 326 326 326 327 328 329 329 329 330 331 331 332 333 334 334 335 336 337 338 339 340 342 343 344 346 347 349 351 354 356 358 361 364 367 369 371 371 372 372 373 374 374 374 374 374 374 374 373 373 373 373 373 373 373 373 373 373 373 373 373 373 373 373 373 373 374 374 374 374 375 375 375 376 376 377 377 378 380 381 382 381 380 378 374 369 365 360 355 350 344 338 332 327 321 316 310 304 299 293 288 282 275 270 264 259 254 248 242 236 230 224 219 213 207 201 193 184 177 171 167 163 159 154 150 146 141 136 131 127 122 117 113 108 102 97 92 86 80 72 62 51 38 25 14 5 0 0 0 0 0 1 1 -9999 -9999 -9999 -9999 -9999 -9999 -9999 -9999 -9999 -9999 -9999 -9999 -9999 -9999 -9999 -9999 -9999 -9999 -9999 -9999 -9999 -9999 -9999 -9999 -9999 -9999 -9999 -9999 -9999 -9999 -9999 -9999 -9999 -9999 -9999 -9999 -9999 -9999 -9999 -9999 -9999 -9999 -9999 -9999 -9999 -9999 -9999 -9999 -9999 -9999 -9999 -9999 -9999 -9999 -9999 -9999 -9999 -9999 -9999 -9999 -9999 -9999 -9999 -9999 -9999 -9999 -9999 -9999 -9999 -9999 -9999 -9999 -9999 -9999 -9999 -9999
-9999 -9999 -9999 -9999 -9999 -9999 -9999 -9999 -9999 -9999 -9999 -9999 -9999 -9999 -9999 -9999 -9999 -9999 -9999 -9999 -9999 -9999 -9999 -9999 -9999 -9999 -9999 -9999 -9999 -9999 -9999 -9999 -9999 -9999 -9999 -9999 -9999 -9999 -9999 -9999 -9999 -9999 -9999 -9999 -9999 -9999 -9999 -9999 -9999 -9999 -9999 -9999 -9999 -9999 -9999 -9999 -9999 -9999 -9999 -9999 -9999 -9999 -9999 -9999 -9999 -9999 -9999 -9999 -9999 -9999 -9999 -9999 -9999 -9999 -9999 -9999 -9999 1 1 1 1 1 1 1 1 3 7 12 16 20 26 40 61 80 93 104 117 129 140 146 149 151 154 157 160 163 166 168 171 174 177 180 183 186 190 192 195 197 201 204 206 209 211 214 217 220 222 225 228 231 234 237 240 243 246 249 251 254 256 258 258 259 259 258 256 254 252 250 248 246 245 245 245 245 245 245 245 245 245 244 242 241 240 239 238 238 237 237 236 235 234 235 235 236 236 236 235 236 238 239 242 244 246 248 248 247 244 244 244 244 245 247 248 250 252 256 262 267 272 275 277 278 279 283 287 292 296 300 302 302 302 299 294 289 285 280 277 273 269 266 262 259 256 253 250 246 243 240 238 235 232 228 226 225 224 222 220 219 217 215 213 212 210 209 208 206 205 204 202 202 201 201 201 201 201 201 202 203 204 204 205 205 204 203 203 202 202 202 203 203 204 204 204 204 206 211 216 218 218 217 215 214 215 217 218 219 218 216 215 215 214 213 210 207 206 205 208 211 215 220 225 230 236 242 248 253 259 262 266 269 272 276 280 284 288 292 296 299 300 301 301 299 298 297 295 293 294 296 299 301 300 299 299 302 304 306 305 305 306 307 307 309 312 314 315 317 318 318 319 319 320 321 322 323 323 324 324 324 324 324 324 324 324 325 326 326 326 326 325 324 323 324 324 323 322 321 320 322 324 325 326 325 326 325 325 325 324 325 325 326 326 326 327 328 329 330 330 330 331 332 333 333 334 335 336 337 337 338 339 341 342 344 345 347 348 350 352 355 359 361 365 368 370 371 373 373 373 373 373 374 374 374 374 374 374 374 373 373 373 373 373 373 373 373 373 373 373 373 373 373 373 373 373 373 374 374 374 374 375 375 375 376 376 377 377 378 379 381 382 381 381 379 375 371 367 363 358 352 346 340 334 329 323 318 312 306 301 295 290 284 277 272 266 261 256 251 245 239 233 227 221 215 209 203 193 185 180 175 170 166 162 158 153 149 144 139 134 129 124 120 115 110 104 99 94 89 83 73 62 52 41 30 20 9 3 1 0 0 0 1 1 1 -9999 -9999 -9999 -9999 -9999 -9999 -9999 -9999 -9999 -9999 -9999 -9999 -9999 -9999 -9999 -9999 -9999 -9999 -9999 -9999 -9999 -9999 -9999 -9999 -9999 -9999 -9999 -9999 -9999 -9999 -9999 -9999 -9999 -9999 -9999 -9999 -9999 -9999 -9999 -9999 -9999 -9999 -9999 -9999 -9999 -9999 -9999 -9999 -9999 -9999 -9999 -9999 -9999 -9999 -9999 -9999 -9999 -9999 -9999 -9999 -9999 -9999 -9999 -9999 -9999 -9999 -9999 -9999 -9999 -9999 -9999 -9999 -9999 -9999 -9999
-9999 -9999 -9999 -9999 -9999 -9999 -9999 -9999 -9999 -9999 -9999 -9999 -9999 -9999 -9999 -9999 -9999 -9999 -9999 -9999 -9999 -9999 -9999 -9999 -9999 -9999 -9999 -9999 -9999 -9999 -9999 -9999 -9999 -9999 -9999 -9999 -9999 -9999 -9999 -9999 -9999 -9999 -9999 -9999 -9999 -9999 -9999 -9999 -9999 -9999 -9999 -9999 -9999 -9999 -9999 -9999 -9999 -9999 -9999 -9999 -9999 -9999 -9999 -9999 -9999 -9999 -9999 -9999 -9999 -9999 -9999 -9999 -9999 -9999 -9999 -9999 -9999 -9999 -9999 1 1 1 1 1 1 1 4 9 14 17 21 35 56 74 86 97 109 124 136 143 147 151 154 157 159 162 165 168 170 173 176 179 182 185 188 191 193 196 199 202 205 208 211 214 217 220 222 225 228 231 234 237 240 243 246 249 252 255 257 259 261 263 264 263 262 260 258 256 254 253 251 250 250 250 250 250 251 252 252 251 249 249 249 247 246 245 245 244 244 242 242 242 243 244 244 244 243 243 245 247 249 251 254 257 258 255 252 252 253 253 254 255 256 256 258 263 269 275 280 283 285 285 287 290 295 299 303 307 309 310 309 306 300 295 290 286 282 278 275 271 267 263 260 257 254 251 247 245 242 239 236 232 230 228 227 225 224 222 220 218 216 215 213 212 210 209 208 207 205 205 204 204 204 204 204 204 205 206 206 207 208 208 207 206 205 205 205 205 205 206 206 206 206 205 207 213 219 221 220 219 219 218 219 222 224 225 225 225 225 225 224 223 222 220 219 219 221 224 228 233 237 241 246 252 258 263 267 270 271 274 276 280 284 288 291 295 299 302 304 305 305 304 303 301 299 298 299 301 303 305 304 303 302 303 303 304 304 305 306 308 309 311 315 317 318 319 319 320 320 321 321 322 323 324 324 324 324 324 324 325 325 325 325 326 327 327 326 326 325 324 324 324 324 324 323 322 320 321 324 326 326 326 326 326 326 326 325 325 326 326 326 327 327 329 329 330 331 331 332 332 333 334 335 336 336 337 338 339 340 341 343 344 346 347 349 351 353 356 361 364 367 371 373 373 374 374 374 374 374 374 374 374 374 374 374 374 374 373 373 373 373 373 373 373 373 373 373 373 373 373 373 373 373 374 374 374 374 374 375 375 375 376 376 377 377 378 378 380 382 382 382 380 376 373 369 364 360 354 348 342 336 331 325 320 314 308 303 297 292 287 280 274 269 264 259 253 248 241 235 230 224 218 211 203 194 188 183 178 173 168 165 161 156 152 147 142 136 132 127 122 117 112 107 101 96 90 83 73 61 51 42 33 24 15 7 2 0 0 0 1 1 1 -9999 -9999 -9999 -9999 -9999 -9999 -9999 -9999 -9999 -9999 -9999 -9999 -9999 -9999 -9999 -9999 -9999 -9999 -9999 -9999 -9999 -9999 -9999 -9999 -9999 -9999 -9999 -9999 -9999 -9999 -9999 -9999 -9999 -9999 -9999 -9999 -9999 -9999 -9999 -9999 -9999 -9999 -9999 -9999 -9999 -9999 -9999 -9999 -9999 -9999 -9999 -9999 -9999 -9999 -9999 -9999 -9999 -9999 -9999 -9999 -9999 -9999 -9999 -9999 -9999 -9999 -9999 -9999 -9999 -9999 -9999 -9999 -9999 -9999 -9999
-9999 -9999 -9999 -9999 -9999 -9999 -9999 -9999 -9999 -9999 -9999 -9999 -9999 -9999 -9999 -9999 -9999 -9999 -9999 -9999 -9999 -9999 -9999 -9999 -9999 -9999 -9999 -9999 -9999 -9999 -9999 -9999 -9999 -9999 -9999 -9999 -9999 -9999 -9999 -9999 -9999 -9999 -9999 -9999 -9999 -9999 -9999 -9999 -9999 -9999 -9999 -9999 -9999 -9999 -9999 -9999 -9999 -9999 -9999 -9999 -9999 -9999 -9999 -9999 -9999 -9999 -9999 -9999 -9999 -9999 -9999 -9999 -9999 -9999 -9999 -9999 -9999 -9999 -9999 1 1 1 1 1 1 1 2 7 11 15 20 32 50 66 77 88 101 116 129 139 145 150 153 156 159 161 165 167 170 172 175 178 181 185 188 190 193 196 199 202 205 208 211 214 217 219 222 224 227 230 233 236 239 243 246 249 252 255 257 259 262 264 266 267 267 266 264 263 261 260 258 256 256 255 255 256 258 259 259 258 258 258 257 255 254 254 254 253 252 251 249 249 250 251 251 251 250 251 252 254 256 258 262 265 266 263 260 259 261 262 263 263 263 262 263 269 275 281 286 290 292 293 295 299 303 306 310 315 317 318 318 314 307 301 295 290 286 283 280 276 271 267 264 261 258 255 252 249 246 244 240 236 233 231 230 229 227 224 222 221 219 217 216 215 213 212 210 209 208 207 207 206 206 206 206 206 207 208 209 210 210 211 210 209 208 208 208 208 208 209 208 208 207 207 210 216 222 224 224 223 224 226 228 231 233 234 235 236 236 235 235 234 234 233 232 232 233 236 240 244 247 251 255 260 265 268 272 274 276 278 281 284 287 291 295 298 302 305 306 307 307 307 306 306 304 302 303 305 307 308 308 306 306 306 306 306 307 308 309 310 312 314 317 319 320 320 321 321 321 322 322 323 323 324 324 324 324 325 325 325 326 326 326 327 327 327 326 326 325 324 324 325 325 324 324 323 321 321 323 326 327 327 327 327 327 326 326 326 326 327 327 327 328 329 330 330 331 332 332 333 334 334 335 336 337 338 339 340 341 342 343 344 346 348 350 352 354 356 360 363 366 370 373 374 375 374 374 374 374 374 374 374 374 374 374 374 374 374 373 373 373 373 373 373 373 373 373 373 373 373 373 373 374 374 374 374 374 374 375 375 375 376 376 377 377 378 378 380 382 383 384 383 379 375 371 366 362 356 351 344 339 333 328 322 316 310 305 299 294 290 284 278 273 267 262 256 250 244 238 232 226 219 211 202 195 191 186 181 176 171 167 163 158 154 149 144 138 133 128 123 119 113 108 103 97 91 84 75 64 53 44 36 28 19 10 3 0 0 0 0 1 1 -9999 -9999 -9999 -9999 -9999 -9999 -9999 -9999 -9999 -9999 -9999 -9999 -9999 -9999 -9999 -9999 -9999 -9999 -9999 -9999 -9999 -9999 -9999 -9999 -9999 -9999 -9999 -9999 -9999 -9999 -9999 -9999 -9999 -9999 -9999 -9999 -9999 -9999 -9999 -9999 -9999 -9999 -9999 -9999 -9999 -9999 -9999 -9999 -9999 -9999 -9999 -9999 -9999 -9999 -9999 -9999 -9999 -9999 -9999 -9999 -9999 -9999 -9999 -9999 -9999 -9999 -9999 -9999 -9999 -9999 -9999 -9999 -9999 -9999 -9999
-9999 -9999 -9999 -9999 -9999 -9999 -9999 -9999 -9999 -9999 -9999 -9999 -9999 -9999 -9999 -9999 -9999 -9999 -9999 -9999 -9999 -9999 -9999 -9999 -9999 -9999 -9999 -9999 -9999 -9999 -9999 -9999 -9999 -9999 -9999 -9999 -9999 -9999 -9999 -9999 -9999 -9999 -9999 -9999 -9999 -9999 -9999 -9999 -9999 -9999 -9999 -9999 -9999 -9999 -9999 -9999 -9999 -9999 -9999 -9999 -9999 -9999 -9999 -9999 -9999 -9999 -9999 -9999 -9999 -9999 -9999 -9999 -9999 -9999 -9999 -9999 -9999 -9999 -9999 1 1 1 1 1 1 1 1 3 7 13 21 31 44 58 68 78 92 107 121 134 144 149 152 155 158 160 164 167 169 172 175 178 181 184 187 190 192 195 198 202 205 208 211 214 216 219 222 224 227 230 233 236 239 242 245 249 252 255 257 259 262 265 267 270 271 271 270 269 268 267 266 264 262 262 262 263 265 266 267 266 266 265 264 263 262 263 263 262 261 259 257 257 258 258 259 258 258 258 259 261 262 265 268 271 272 270 268 267 269 271 272 272 270 268 269 274 281 287 293 297 300 302 304 308 311 314 317 322 325 327 327 323 314 306 300 295 291 288 285 280 276 272 268 265 262 259 256 253 250 248 245 241 237 234 233 231 230 227 225 223 222 220 219 217 216 215 213 212 211 210 209 208 209 209 209 209 209 210 212 212 213 214 213 212 211 211 211 211 211 211 210 209 208 209 214 221 227 229 230 230 232 235 238 241 243 244 245 245 245 246 245 244 244 244 243 243 245 247 250 253 256 259 262 266 269 272 275 278 280 282 285 288 291 295 299 302 304 306 307 309 309 309 308 308 308 306 306 308 310 312 311 310 309 309 310 311 312 313 314 314 315 316 318 320 321 322 322 322 322 323 323 323 324 324 325 325 325 325 325 326 326 327 327 327 327 327 326 326 325 325 325 325 325 325 325 324 322 321 322 325 327 327 328 328 327 327 327 327 327 327 328 328 329 329 330 331 332 332 333 333 334 335 336 336 337 338 340 340 341 342 343 344 346 348 350 352 354 356 358 361 365 369 373 375 374 374 374 374 374 374 374 374 374 374 374 374 374 374 373 373 373 373 373 373 373 373 373 373 373 373 373 373 374 374 374 374 374 375 375 375 375 376 376 377 377 378 379 380 382 384 386 385 381 378 374 369 364 359 353 347 341 336 331 325 319 313 308 302 298 293 288 282 276 270 265 259 252 246 240 234 227 220 211 203 198 194 189 183 178 173 168 164 159 155 151 145 140 135 130 125 120 115 109 104 98 91 85 77 68 57 46 38 30 22 13 5 0 0 0 0 1 1 1 1 -9999 -9999 -9999 -9999 -9999 -9999 -9999 -9999 -9999 -9999 -9999 -9999 -9999 -9999 -9999 -9999 -9999 -9999 -9999 -9999 -9999 -9999 -9999 -9999 -9999 -9999 -9999 -9999 -9999 -9999 -9999 -9999 -9999 -9999 -9999 -9999 -9999 -9999 -9999 -9999 -9999 -9999 -9999 -9999 -9999 -9999 -9999 -9999 -9999 -9999 -9999 -9999 -9999 -9999 -9999 -9999 -9999 -9999 -9999 -9999 -9999 -9999 -9999 -9999 -9999 -9999 -9999 -9999 -9999 -9999 -9999 -9999 -9999
